0.0,0.0,0.0
0.0,0.0,0.0
0.0,0.0,0.0
0.0,0.0,0.0
0.0,0.0,0.0
0.0,0.0,0.0
0.0,0.0,0.0
0.0,0.0,0.0
0.0,0.0,0.0
0.0,0.0,0.0
0.0,0.0,0.0
0.0,0.0,0.0
0.0,0.0,0.0
0.0,0.0,0.0
0.0,0.0,0.0
0.0,0.0,0.0
0.0,0.0,0.0
0.0,0.0,0.0
0.0,0.0,0.0
0.0,0.0,0.0
0.0,0.0,0.0
0.0,0.0,0.0
0.0,0.0,0.0
0.0,0.0,0.0
-7.62997132927921e-08,3.053307238502954e-09,4.270953470739347e-09
-1.406260195156197e-07,2.5823377919016575e-09,7.873747044951665e-09
-1.912612830544812e-07,1.7727965146135187e-09,1.0658235798459867e-08
-2.2262260391612986e-07,7.819488395786893e-10,1.2317582278273392e-08
-2.3219484870249e-07,-2.1453535090030768e-10,1.272441468397237e-08
-2.2101148036415298e-07,-1.0461587081182494e-09,1.1966031631830136e-08
-1.9333521929768256e-07,-1.5890598452967822e-09,1.0317214827617183e-08
-1.5561705865115367e-07,-1.7949770578855296e-09,8.168240229112897e-09
-1.1498999859716284e-07,-1.6980517434993117e-09,5.92801842739569e-09
-7.766596737813768e-08,-1.3959955014589584e-09,3.929869646689901e-09
-4.7688587197093504e-08,-1.0113822300019237e-09,2.3692147130993325e-09
-2.6459868253337262e-08,-6.493703936361554e-10,1.2924163489124606e-09
-1.3161326410851588e-08,-3.7098238809749435e-10,6.334950361296713e-10
-5.748539746186389e-09,-1.9105769617043826e-10,2.7357754791379543e-10
-1.9586260196622443e-09,-9.48311099774759e-11,9.265474668652485e-11
9.331743524101257e-11,-5.92631583384241e-11,-4.014347330054922e-12
1.818903188078307e-09,-6.862935637869672e-11,-8.487918192811583e-11
4.411055739919249e-09,-1.2214480691404202e-10,-2.068212327628365e-10
9.262183580721793e-09,-2.3696739435637163e-10,-4.365756447887152e-10
1.8445669420680424e-08,-4.505514761615779e-10,-8.749677426581592e-10
3.524319811850516e-08,-8.239978884416703e-10,-1.6841286800312004e-09
6.471170361986988e-08,-1.4455431270515594e-09,-3.118205394925206e-09
1.1424677586557627e-07,-2.4310136118466398e-09,-5.55608221939636e-09
1.9399160221946845e-07,-3.917758021018704e-09,-9.52900489380868e-09
3.1691682302739503e-07,-6.046068757795818e-09,-1.5734000581353943e-08
4.981811604949709e-07,-8.928082783620547e-09,-2.5011964238535583e-08
7.53737427789585e-07,-1.2595297521606606e-08,-3.828493463082513e-08
1.0974139629387902e-06,-1.6948189832164374e-08,-5.640905488561072e-08
1.5378430984081924e-06,-2.1673579592865257e-08,-8.000436578566412e-08
2.0723866946621147e-06,-2.6256761683606346e-08,-1.0911821781928905e-07
2.686442355522957e-06,-2.9841734583006304e-08,-1.4312688428086385e-07
3.340476449968095e-06,-3.162598992431668e-08,-1.8004161961005072e-07
3.99204543770844e-06,-3.0139366546617857e-08,-2.174744424623816e-07
4.53993513526123e-06,-2.5559331168210692e-08,-2.499813818101504e-07
4.973550093216347e-06,-1.465973892833958e-08,-2.760599430195388e-07
5.028702206166771e-06,-4.175306608725483e-09,-2.8224104214011263e-07
5.072007150740822e-06,2.1497970794184502e-08,-2.8431659830901365e-07
3.981333077886289e-06,2.044294088452909e-08,-2.2948513132256374e-07
4.3508770863203735e-06,8.786503977471686e-08,-2.360852850270772e-07
0.0,0.0,0.0
0.0,0.0,0.0
-1.8704500653298046e-07,7.73769626082256e-09,8.219349172911188e-09
-3.4458600593130315e-07,6.582260449365635e-09,1.5148963426297677e-08
-4.6968427268273804e-07,4.578139759608807e-09,2.0563665040387296e-08
-5.488932466978803e-07,2.1109351965384583e-09,2.3890651670247943e-08
-5.758218698051052e-07,-3.9304578674345855e-10,2.4870406559905475e-08
-5.523285067045111e-07,-2.514843966881301e-09,2.363002598044632e-08
-4.879241322172152e-07,-3.941533496977249e-09,2.0643361552887324e-08
-3.975213402076535e-07,-4.537874090619468e-09,1.661124011295981e-08
-2.9806448056483525e-07,-4.367844089281969e-09,1.229385504646707e-08
-2.0481804100440567e-07,-3.656483010292639e-09,8.340032100290642e-09
-1.2829198800062189e-07,-2.7020339411695964e-09,5.1631414914058284e-09
-7.280364854234773e-08,-1.773323899903139e-09,2.901840980338146e-09
-3.712344816419178e-08,-1.0381888663835368e-09,1.4696396843363582e-09
-1.6645176251965876e-08,-5.497356074208033e-10,6.567937233105572e-10
-5.822726715700635e-09,-2.8149101251016237e-10,2.3023398150939636e-10
2.3035407690487393e-10,-1.79760727244671e-10,-7.348669048181144e-12
5.346372843235653e-09,-2.0550170289667547e-10,-2.0714391540807253e-10
1.284202035519669e-08,-3.5692404463062836e-10,-4.985418141268854e-10
2.6539671467825233e-08,-6.79029073010034e-10,-1.0305080793960956e-09
5.197670737457816e-08,-1.2695894032347226e-09,-2.019847390241832e-09
9.770564905883808e-08,-2.2860434606809593e-09,-3.803897674280446e-09
1.7662802740809042e-07,-3.951580739170848e-09,-6.896477463375878e-09
3.072369037914565e-07,-6.552574793787496e-09,-1.2043098464278414e-08
5.143821411274133e-07,-1.0419438319482274e-08,-2.0260716285713372e-08
8.291751611740109e-07,-1.587632280747523e-08,-3.2846676103426745e-08
1.2870892204157822e-06,-2.31629624413911e-08,-5.1316892678014406e-08
1.9243859125996725e-06,-3.230533976161458e-08,-7.72746814547211e-08
2.770884398164695e-06,-4.300289796965832e-08,-1.1212279991838331e-07
3.843093271503756e-06,-5.4430377081251486e-08,-1.567718085839568e-07
5.129640395959686e-06,-6.530599957715439e-08,-2.1101784954873134e-07
6.592102177311673e-06,-7.352128909004941e-08,-2.7349182535143804e-07
8.131912176367696e-06,-7.722771966345864e-08,-3.402928645084907e-07
9.651925376621513e-06,-7.282955591248547e-08,-4.072085324955769e-07
1.0906482810546256e-05,-6.11721581460656e-08,-4.640843806763171e-07
1.1896760390444677e-05,-3.3967933943975364e-08,-5.094207189033223e-07
1.1963893497921853e-05,-8.948355041738161e-09,-5.174726243904632e-07
1.207665633974667e-05,5.4279752318231225e-08,-5.211425754834031e-07
9.405075282487774e-06,4.924041452503922e-08,-4.182151025410251e-07
1.0441971071351121e-05,2.1452246158125653e-07,-4.3505025617733646e-07
0.0,0.0,0.0
0.0,0.0,0.0
-4.0648479384004693e-07,1.7398976893012537e-08,1.7206679161348428e-08
-7.483380188939495e-07,1.489868229410138e-08,3.170068079586071e-08
-1.0224269169822892e-06,1.0517571731987606e-08,4.3138134877189407e-08
-1.2002462079109642e-06,5.0895269569549794e-09,5.0356888607952574e-08
-1.2674447294001708e-06,-4.775245583072374e-10,5.278946074830179e-08
-1.2264625405439121e-06,-5.277809409838208e-09,5.0626243506721024e-08
-1.0956566534435835e-06,-8.613382018976996e-09,4.475436728307092e-08
-9.051146429723178e-07,-1.0149749334138964e-08,3.654144700206798e-08
-6.901209812637567e-07,-9.973479724627437e-09,2.7520531203688982e-08
-4.836895588287428e-07,-8.52962592163694e-09,1.9055161708592816e-08
-3.0995895318634626e-07,-6.4513299342217146e-09,1.2075751454175766e-08
-1.8048078230965972e-07,-4.3437982111864276e-09,6.966814769313661e-09
-9.466323359293698e-08,-2.6164583031910764e-09,3.6302839516146016e-09
-4.37184286940014e-08,-1.4306392301421717e-09,1.6712633273161263e-09
-1.5753334654375895e-08,-7.590415511911444e-10,6.035232147124354e-10
4.717919322157609e-10,-4.966766497924744e-10,-1.3146873201352449e-11
1.4269362052823138e-08,-5.598681180230598e-10,-5.346689661841429e-10
3.392921111739017e-08,-9.456055426314216e-10,-1.2740296139913792e-09
6.887937252385919e-08,-1.7584885238304619e-09,-2.586391457352515e-09
1.3235019318918036e-07,-3.2244061450136503e-09,-4.971967519501368e-09
2.441852384314563e-07,-5.7015883556157555e-09,-9.185955235880867e-09
4.3355936683475314e-07,-9.686640001942426e-09,-1.6348568274904372e-08
7.41289669657804e-07,-1.5798829695341268e-08,-2.8044930449772048e-08
1.2208715414406386e-06,-2.472778249825337e-08,-4.638231120316129e-08
1.9375580684275876e-06,-3.711333440238912e-08,-7.397818402378475e-08
2.9634610584021624e-06,-5.337427887198744e-08,-1.1379612033407555e-07
4.369569931352307e-06,-7.342961685246439e-08,-1.688578745178902e-07
6.210015799267292e-06,-9.648750083009722e-08,-2.4163519262710996e-07
8.509135494830282e-06,-1.2062797063229745e-07,-3.335176563410473e-07
1.123060811716119e-05,-1.4305561686621818e-07,-4.4355070068024504e-07
1.4285979795389083e-05,-1.592149051311147e-07,-5.686056820555233e-07
1.745873824171272e-05,-1.6545646407015692e-07,-7.004123164849339e-07
2.0557553571267777e-05,-1.540506565471127e-07,-8.309398112207684e-07
2.305671875674134e-05,-1.2788427391913855e-07,-9.394966924015638e-07
2.5026193354388514e-05,-6.813046080557637e-08,-1.0255944480612743e-06
2.501325112409237e-05,-1.5941184637779174e-08,-1.0355166594951304e-06
2.527247275403808e-05,1.2071478378720575e-07,-1.042759605184784e-06
1.9521531585605245e-05,1.0448188820233167e-07,-8.322750390411675e-07
2.202603244430335e-05,4.6058997823504756e-07,-8.7489008183157e-07
0.0,0.0,0.0
0.0,0.0,0.0
-8.474233788876334e-07,3.7621155458482864e-08,3.560560942215856e-08
-1.5586051072377789e-06,3.2429203338319015e-08,6.555663838608137e-08
-2.134351312549606e-06,2.3230967871474544e-08,8.93976201790542e-08
-2.5168974827848065e-06,1.1762134955694327e-08,1.0480094299941854e-07
-2.675522228877105e-06,-1.2379835813975896e-10,1.1055514538878758e-07
-2.6120880130931584e-06,-1.0550105210033625e-08,1.069198097004002e-07
-2.3600272028246794e-06,-1.802651344764006e-08,9.553659084877729e-08
-1.977022009541143e-06,-2.1771870746517033e-08,7.904228623539501e-08
-1.5330147731929044e-06,-2.1854247594672793e-08,6.048294369082067e-08
-1.0959852165478894e-06,-1.9101337431077392e-08,4.266770225026552e-08
-7.185636208117515e-07,-1.4790421731907337e-08,2.7626219228501893e-08
-4.2929021623498366e-07,-1.0218810850095312e-08,1.6327243526318506e-08
-2.31573491108746e-07,-6.333748389173203e-09,8.734889823243105e-09
-1.1012159012539061e-07,-3.576499297535823e-09,4.13333038260483e-09
-4.085565157156638e-08,-1.9659022209658773e-09,1.5344131699467167e-09
8.284266534030904e-10,-1.3179533921743038e-09,-1.8594341593253547e-11
3.652341883452938e-08,-1.4663851092527667e-09,-1.3401717160334201e-09
8.602778975016524e-08,-2.4086480742221596e-09,-3.1657853094872374e-09
1.716040248081378e-07,-4.376970660411595e-09,-6.320454377630927e-09
3.2351414424937154e-07,-7.869161656236934e-09,-1.1931417549673253e-08
5.857756723917724e-07,-1.3662662846721212e-08,-2.1651993665360158e-08
1.0213734681233926e-06,-2.2810595046238964e-08,-3.787301241967419e-08
1.7161986145903729e-06,-3.658639598147948e-08,-6.389787817810328e-08
2.779856506447195e-06,-5.6352841289308544e-08,-1.0401134653490575e-07
4.342331702940505e-06,-8.3290403671162e-08,-1.6340159458291474e-07
6.542300490340744e-06,-1.1804312344338263e-07,-2.4776257992095285e-07
9.510437850160336e-06,-1.6014518635755658e-07,-3.626912366642262e-07
1.3336774327689676e-05,-2.0766388887619562e-07,-5.124285030302311e-07
1.8048615574680958e-05,-2.563476708206107e-07,-6.989348443049729e-07
2.3547306653496416e-05,-3.003965117153734e-07,-9.193298208520455e-07
2.964148971325074e-05,-3.30386145403354e-07,-1.1668125795104479e-06
3.5876850665719e-05,-3.3956577596497815e-07,-1.4241709443080992e-06
4.190155989387068e-05,-3.1191826348914893e-07,-1.6764821560548272e-06
4.6633766439957384e-05,-2.5583108346201904e-07,-1.881840374855847e-06
5.036875960902957e-05,-1.29991586214976e-07,-2.044465021728203e-06
5.001911961018795e-05,-2.6123924588759296e-08,-2.0527805319021878e-06
5.061119794464308e-05,2.5730685806611357e-07,-2.0681733976758627e-06
3.8750420449975596e-05,2.122228416226048e-07,-1.6420259660116718e-06
4.449717323077424e-05,9.483645860475977e-07,-1.744679860743251e-06
0.0,0.0,0.0
0.0,0.0,0.0
-1.7118756841272017e-06,7.89475778889177e-08,7.173668357991658e-08
-3.1445552010975777e-06,6.849201365217018e-08,1.319663295418529e-07
-4.3152574530110205e-06,4.975315068196859e-08,1.8029293856520412e-07
-5.11086560978466e-06,2.624671012606428e-08,2.121906274805376e-07
-5.468111452451209e-06,1.6413265079009404e-09,2.2516321957682853e-07
-5.384754172585112e-06,-2.029636956316642e-08,2.1949170511710993e-07
-4.918943604763393e-06,-3.649091073123554e-08,1.9811919629778944e-07
-4.177023889394887e-06,-4.520340070148398e-08,1.6597931873951484e-07
-3.2924243039945422e-06,-4.6348066546246625e-08,1.289388397694566e-07
-2.3997019725924975e-06,-4.138635201568189e-08,9.259242945586615e-08
-1.608686712885021e-06,-3.279178946671861e-08,6.119261389582413e-08
-9.85384197582875e-07,-2.3235127963231577e-08,3.7009189952106135e-08
-5.462202869333153e-07,-1.4810371576033511e-08,2.0305045457275223e-08
-2.671964379865131e-07,-8.631115925451426e-09,9.864237391675391e-09
-1.0196012372250593e-07,-4.910966288035022e-09,3.759923219610419e-09
1.0973660304698508e-09,-3.371261541376073e-09,-9.842695697690884e-12
9.002622097662288e-08,-3.7070590942935874e-09,-3.23953881419144e-09
2.102418595834285e-07,-5.925888225379351e-09,-7.593372627526806e-09
4.123519421007214e-07,-1.0524120818404947e-08,-1.4920833170136674e-08
7.630613955970204e-07,-1.855594556677506e-08,-2.767670094731087e-08
1.3564182834395031e-06,-3.16431835406759e-08,-4.935904745751223e-08
2.323296380212472e-06,-5.1932525220710095e-08,-8.48988110367314e-08
3.837539182022284e-06,-8.193716531811614e-08,-1.409491764533569e-07
6.1149224708600214e-06,-1.2423150196846255e-07,-2.2592902497360793e-07
9.40390663515935e-06,-1.8086457371807865e-07,-3.4977468139116667e-07
1.3959480448359631e-05,-2.526639318527549e-07,-5.230410901661712e-07
2.0010257529110897e-05,-3.3809555896433634e-07,-7.557090241022967e-07
2.769314071956337e-05,-4.3273113983151847e-07,-1.0546595971290723e-06
3.701988634836655e-05,-5.275293372836923e-07,-1.4222074178388907e-06
4.77496807614471e-05,-6.109334235387498e-07,-1.85097541724571e-06
5.949020430672633e-05,-6.640561262617886e-07,-2.3269487908051e-06
7.13208524175475e-05,-6.7512616431638e-07,-2.8154120311773364e-06
8.263525236083896e-05,-6.11720230490016e-07,-3.289952556031766e-06
9.126476961042756e-05,-4.958673128553863e-07,-3.6675632619287003e-06
9.81198172307736e-05,-2.390715425775133e-07,-3.9672538923907026e-06
9.680263510452228e-05,-3.967116010126629e-08,-3.962084916907285e-06
9.815767158967186e-05,5.309528209544374e-07,-3.995984241006294e-06
7.444984735932369e-05,4.1693481031822455e-07,-3.1560165286429105e-06
8.712333353430517e-05,1.8934441272410355e-06,-3.390636725107589e-06
0.0,0.0,0.0
0.0,0.0,0.0
-3.3555411682168236e-06,1.6098282070240622e-07,1.4045443380124767e-07
-6.1540120003806585e-06,1.4053207575970873e-07,2.580903783836434e-07
-8.461202788238447e-06,1.0343413077542713e-07,3.5317697499268415e-07
-1.0062755050943341e-05,5.663153986480108e-08,4.171925410183983e-07
-1.0833111776475284e-05,7.177246762132269e-09,4.4517544254129127e-07
-1.0757228585295512e-05,-3.759412965242006e-08,4.372498769047652e-07
-9.93165151255643e-06,-7.153889990117681e-08,3.985082107410938e-07
-8.545161371237364e-06,-9.09522272808769e-08,3.3788456500317806e-07
-6.843054086754916e-06,-9.524113686524311e-08,2.6630837888335287e-07
-5.081670851290245e-06,-8.684756329041613e-08,1.9453548693860073e-07
-3.480738701421828e-06,-7.037366122710517e-08,1.311258813051292e-07
-2.1842965772289985e-06,-5.1106379285283906e-08,8.108642600254797e-08
-1.2431004571677302e-06,-3.347870094880924e-08,4.558066725858473e-08
-6.248894117836018e-07,-2.0121621535184878e-08,2.2709349775995104e-08
-2.449928149684119e-07,-1.1839982308448521e-08,8.878427831865584e-09
3.4978020690829625e-10,-8.317415426104997e-09,6.008303052543693e-11
2.1381017795400015e-07,-9.04991504131304e-09,-7.549290878521668e-09
4.954981892494486e-07,-1.4089942430798274e-08,-1.7573629166853367e-08
9.562195813623245e-07,-2.4460298982160144e-08,-3.401074783780081e-08
1.7377750361153237e-06,-4.23073759496844e-08,-6.202159177251255e-08
3.0338893341751503e-06,-7.088477295399195e-08,-1.0875083957410627e-07
5.106529481429225e-06,-1.1440072409135581e-07,-1.840118209460898e-07
8.294429024095932e-06,-1.7761661004547229e-07,-3.00731617395658e-07
1.3006068260911935e-05,-2.651783465326473e-07,-4.748599565045409e-07
1.9697488437787803e-05,-3.8040246954700377e-07,-7.247361941091205e-07
2.8816904367557455e-05,-5.239774675723551e-07,-1.0691700597968562e-06
4.0743712380849575e-05,-6.917636960499127e-07,-1.5252162240709898e-06
5.566174941558166e-05,-8.741622874633953e-07,-2.1032577607911647e-06
7.351823861700908e-05,-1.0526634989057588e-06,-2.8049941128927745e-06
9.376969837592954e-05,-1.205137896627109e-06,-3.61330930412425e-06
0.00011565253111155095,-1.294822775798463e-06,-4.500764532104597e-06
0.00013736040666457208,-1.30256956122694e-06,-5.399527991450421e-06
0.00015792691431779367,-1.1640695186728978e-06,-6.26553744113106e-06
0.0001731054327317957,-9.331325120395931e-07,-6.938228244420743e-06
0.0001853205294864201,-4.2451534841697855e-07,-7.475626959485009e-06
0.00018162522965477324,-5.4907428138371925e-08,-7.426826164477186e-06
0.00018470099548853624,1.062170667827453e-06,-7.5023555493235445e-06
0.00013869234124146604,7.932897746913902e-07,-5.894217579338724e-06
0.00016562366010534145,3.6713718215521434e-06,-6.405392880975639e-06
0.0,0.0,0.0
0.0,0.0,0.0
-6.384282881533644e-06,3.190772157395906e-07,2.6721843228976474e-07
-1.1685859247040197e-05,2.8020833828536153e-07,4.903441264385937e-07
-1.6093923689779246e-05,2.0880553302989875e-07,6.719276168157996e-07
-1.9215311916746438e-05,1.1824299051470399e-07,7.964403649971772e-07
-2.0809746652992404e-05,2.1698576692855926e-08,8.543628263775699e-07
-2.0830488762292383e-05,-6.69636041970603e-08,8.45207872674758e-07
-1.943001890587655e-05,-1.358562224202806e-07,7.774711378430164e-07
-1.693089501716535e-05,-1.7740323222368108e-07,6.668064639020725e-07
-1.3767671724963986e-05,-1.896971443310618e-07,5.329059176165788e-07
-1.0410440215867777e-05,-1.7656884941119977e-07,3.957332608023591e-07
-7.280956783051689e-06,-1.4624085030792957e-07,2.718581284566906e-07
-4.677350309706351e-06,-1.0878034197106433e-07,1.7175133246359334e-07
-2.7305034665987045e-06,-7.318744779052244e-08,9.882729978282143e-08
-1.409086925458198e-06,-4.533335534956686e-08,5.0446486565997226e-08
-5.669968823764882e-07,-2.7560233033391794e-08,2.0208830389406716e-08
-4.384943016281804e-09,-1.9798980252179064e-08,3.245073156564713e-10
4.894094048352896e-07,-2.1340771292430233e-08,-1.6963033397360048e-08
1.126462978083805e-06,-3.238734518657767e-08,-3.9248532898384994e-08
2.140460396829465e-06,-5.4972083430155605e-08,-7.486431780864871e-08
3.822164620680726e-06,-9.329603732261983e-08,-1.3428607139864347e-07
6.556375693999565e-06,-1.5363341277320563e-07,-2.3160158020208835e-07
1.084828906361291e-05,-2.439133032070216e-07,-3.8565498825427384e-07
1.733326100875777e-05,-3.727853013024146e-07,-6.206724308566483e-07
2.675458991622048e-05,-5.482360796991584e-07,-9.65776048272906e-07
3.9915458392408185e-05,-7.751746792589138e-07,-1.4535656505383047e-06
5.756724715924376e-05,-1.0531439664053853e-06,-2.1162165510702107e-06
8.030388005277627e-05,-1.372183268631106e-06,-2.9815833026698287e-06
0.00010832252199762363,-1.7125090437262837e-06,-4.063878435361642e-06
0.00014139746851438915,-2.0375809048140223e-06,-5.361656524453341e-06
0.0001783766956283533,-2.3067038780154157e-06,-6.837975268982698e-06
0.0002178493572428314,-2.4502748609326e-06,-8.441747008066596e-06
0.00025637737821995407,-2.4398991285662758e-06,-1.0044406844589176e-05
0.0002925793469780192,-2.1504205492188776e-06,-1.157763246845845e-05
0.0003183199373220898,-1.705957073162694e-06,-1.2737916281109333e-05
0.00033948568720167837,-7.276748166140738e-07,-1.3675928875902551e-05
0.00033048480358641337,-6.652747702006205e-08,-1.3516768538491908e-05
0.00033733556498088344,2.060828119454484e-06,-1.368395236252548e-05
0.00025060635766771587,1.4619491130084738e-06,-1.0693958199212633e-05
0.00030582402446513446,6.915890609477416e-06,-1.1759868292063809e-05
0.0,0.0,0.0
0.0,0.0,0.0
-1.1792370500066928e-05,6.148742138635711e-07,4.941371469077337e-07
-2.1534327573839125e-05,5.430689997904035e-07,9.052227690435607e-07
-2.969991515258319e-05,4.094162897998503e-07,1.241841501278435e-06
-3.559120268776039e-05,2.390614360637381e-07,1.4766155523181958e-06
-3.8764545912692625e-05,5.594453386631225e-08,1.5919054100223688e-06
-3.91040729089232e-05,-1.1448582583258169e-07,1.5856338506741064e-06
-3.683753412194039e-05,-2.499403079099708e-07,1.4714642144838487e-06
-3.2494963650674154e-05,-3.3551744632995875e-07,1.2759436672262104e-06
-2.6817989662559403e-05,-3.6631433894760865e-07,1.033397271650014e-06
-2.0636413646794142e-05,-3.478953517584895e-07,7.796116369078802e-07
-1.4727309996735809e-05,-2.94355589190126e-07,5.454554781802071e-07
-9.677952557855752e-06,-2.2413720779793794e-07,3.517807997882385e-07
-5.790322620599467e-06,-1.5478354679342676e-07,2.0701829958064414e-07
-3.06459992832685e-06,-9.874009091658309e-08,1.081609128166303e-07
-1.2643535703893747e-06,-6.196196155832915e-08,4.43547661245658e-08
-2.1156384759639702e-08,-4.548927921503669e-08,1.1211945637368204e-09
1.0799861406505382e-06,-4.862295525912308e-08,-3.6759094086333266e-08
2.4708570522980565e-06,-7.199122685097893e-08,-8.460612786484784e-08
4.626150498551201e-06,-1.1949783750918893e-07,-1.591656638220019e-07
8.121025596136861e-06,-1.9904463842578817e-07,-2.8096970163767344e-07
1.369266085879766e-05,-3.222536900509389e-07,-4.768405435327328e-07
2.227966808733061e-05,-5.034715753995173e-07,-7.816964752344434e-07
3.502897423048489e-05,-7.577376717029382e-07,-1.2393282472359533e-06
5.32397624892562e-05,-1.0980715700149176e-06,-1.9009695362839715e-06
7.826776192676738e-05,-1.5308429805097134e-06,-2.822411333175564e-06
0.00011130965711912744,-2.0519951359200445e-06,-4.0564027468610524e-06
0.0001532342625379537,-2.6394256101862698e-06,-5.646314302484927e-06
0.000204140528593449,-3.254235559803521e-06,-7.608854604744009e-06
0.0002634168861645388,-3.826760411829482e-06,-9.934059113010516e-06
0.00032874745418525576,-4.285228493020944e-06,-1.2546717084528023e-05
0.0003976620543462552,-4.501254500003265e-06,-1.5356428051887172e-05
0.00046380106169948614,-4.438455190065576e-06,-1.812645579026469e-05
0.0005255256516610446,-3.857579152419625e-06,-2.0760901058904788e-05
0.0005675710298101321,-3.031429560872961e-06,-2.2698573003397553e-05
0.0006032874534282962,-1.203380868632518e-06,-2.429412631324763e-05
0.0005832663174455976,-6.322963278875179e-08,-2.3889835168668077e-05
0.000598124884981801,3.878945367347637e-06,-2.4252676855024937e-05
0.0004392684803775195,2.609239762009494e-06,-1.88527432045114e-05
0.0005486195495721857,1.2658478240249007e-05,-2.098580481277864e-05
0.0,0.0,0.0
0.0,0.0,0.0
-2.115227122347973e-05,1.1523431470891713e-06,8.883610572936947e-07
-3.851948351712634e-05,1.0233496718468257e-06,1.6241915237789238e-06
-5.3187866759380446e-05,7.799438755024185e-07,2.2300678087311573e-06
-6.395827607976952e-05,4.682943348834681e-07,2.659307943949322e-06
-7.004006542586835e-05,1.3071632237428376e-07,2.8803280268532315e-06
-7.11795092007029e-05,-1.8740481987856643e-07,2.8875640156751497e-06
-6.769554582045114e-05,-4.455464033834275e-07,2.7021945626789466e-06
-6.0425097692288475e-05,-6.154701712106681e-07,2.3678126890523794e-06
-5.058715096114879e-05,-6.860291712005927e-07,1.9423232580915692e-06
-3.959147674771592e-05,-6.645106404394511e-07,1.4877043190528445e-06
-2.8812751578723947e-05,-5.740716860411141e-07,1.0593404495209533e-06
-1.9354447455107866e-05,-4.4721751994609827e-07,6.968951931044568e-07
-1.1858127445161892e-05,-3.168073345461481e-07,4.190716678595866e-07
-6.430654841241924e-06,-2.0799688875438067e-07,2.238967281456593e-07
-2.717566148640283e-06,-1.345999512847462e-07,9.390252751035623e-08
-6.953867127100308e-08,-1.0091284047358989e-07,3.2353295370087377e-09
2.2981923875273037e-06,-1.0706809373847113e-07,-7.683835530412576e-08
5.230497103568296e-06,-1.54793914960548e-07,-1.7606699711023398e-07
9.656132859363487e-06,-2.513356573121224e-07,-3.2690382554519927e-07
1.6672756724671005e-05,-4.1097091735777615e-07,-5.682112816922447e-07
2.7642679808524144e-05,-6.543601872871574e-07,-9.493105515853309e-07
4.4245942802992686e-05,-1.0064010093202563e-06,-1.5326456222817946e-06
6.847459484026592e-05,-1.4920583682202487e-06,-2.394564641321733e-06
0.00010250785704524928,-2.131319178863244e-06,-3.6218853379818015e-06
0.00014853565648098908,-2.930607917475794e-06,-5.3064936053644846e-06
0.00020835830317159163,-3.877046989146215e-06,-7.531093820275716e-06
0.00028314451719139815,-4.9246352223960975e-06,-1.0359834616334728e-05
0.0003726281939881335,-6.000254012634606e-06,-1.3806817554179298e-05
0.0004754325086676972,-6.975443627575308e-06,-1.78435257115409e-05
0.0005871135986952184,-7.729073154082979e-06,-2.232425479164632e-05
0.0007035898146555865,-8.03001400343217e-06,-2.7097315712452866e-05
0.000813405442063619,-7.84437261577971e-06,-3.173848770745241e-05
0.0009153910433838047,-6.722538320259397e-06,-3.613334673385972e-05
0.0009814626390155855,-5.239183965388687e-06,-3.9265954493500966e-05
0.0010402745422671516,-1.9189689671934275e-06,-4.191407416683935e-05
0.0009986637815967657,-2.575810920008792e-08,-4.101070174908357e-05
0.001029895839933958,7.084946506294581e-06,-4.1776367246894897e-05
0.0007470708585043666,4.509775809553551e-06,-3.2301720384413595e-05
0.0009564111682375279,2.2517991453471772e-05,-3.640752657507302e-05
0.0,0.0,0.0
0.0,0.0,0.0
-3.685318459637022e-05,2.1008756981629876e-06,1.5534932261150138e-06
-6.689353249913604e-05,1.8754464674660832e-06,2.833694252246305e-06
-9.24490436485311e-05,1.443980205718839e-06,3.892883922746371e-06
-0.00011152577947499009,8.892927247199083e-07,4.654104618886655e-06
-0.0001227631051765373,2.841992570533564e-07,5.06269270415566e-06
-0.00012565104338067208,-2.9261934180796803e-07,5.106239647049102e-06
-0.0001206017061562736,-7.696916270507223e-07,4.816419641899009e-06
-0.00010888322327632178,-1.0953887391286334e-06,4.262619676647702e-06
-9.24243900925122e-05,-1.2464226979945057e-06,3.5394437137585316e-06
-7.35298907173331e-05,-1.2308781522682506e-06,2.750647331460416e-06
-5.4534880416684696e-05,-1.085164710359567e-06,1.991989560336477e-06
-3.742006287772179e-05,-8.644059872029087e-07,1.335683926005878e-06
-2.345891348634139e-05,-6.277820109327847e-07,8.200463333691854e-07
-1.3023352135665517e-05,-4.2390923106313975e-07,4.476067440832768e-07
-5.632186325448518e-06,-2.826233601632877e-07,1.9182501210958613e-07
-1.9329311082088992e-07,-2.1623016207710052e-07,8.367545586872405e-09
4.717364049537685e-06,-2.2792528198167692e-07,-1.54964372291206e-07
1.0688450466020071e-05,-3.220566972453261e-07,-3.5378328439070065e-07
1.9470089465063926e-05,-5.116421225034435e-07,-6.487422179908439e-07
3.308343731848593e-05,-8.214513656453722e-07,-1.1108874031145457e-06
5.395743893322093e-05,-1.2866880338730936e-06,-1.827832008064472e-06
8.498899149798371e-05,-1.9487256733867293e-06,-2.9073620746702154e-06
0.0001295058701690052,-2.8469774069367325e-06,-4.477881557841269e-06
0.0001910115785432879,-4.01000057687748e-06,-6.6810524725875984e-06
0.0002728842270220118,-5.440051549954111e-06,-9.662469451336811e-06
0.00037765777390756167,-7.105336311009081e-06,-1.3545800264610875e-05
0.0005067323288581529,-8.915149631512381e-06,-1.8420781404440803e-05
0.000658928931401038,-1.0737927118205418e-05,-2.4286547438985827e-05
0.0008314865179566914,-1.2344198345064207e-05,-3.1079249834622376e-05
0.001016224555051528,-1.3539019435928317e-05,-3.8528710887275005e-05
0.0012068266087827734,-1.391548861804987e-05,-4.6394736728008924e-05
0.0013831538437066527,-1.3474487489480852e-05,-5.393619452400617e-05
0.0015465109664650352,-1.138504742774214e-05,-6.106026007691633e-05
0.0016461960832395174,-8.812161013664988e-06,-6.5964566440737e-05
0.0017408850531620262,-2.948203242973474e-06,-7.026085598207585e-05
0.0016590400977946674,7.296959904248108e-08,-6.84084574586394e-05
0.001722499697404002,1.2560774078657027e-05,-6.997185453140221e-05
0.0012328927857240338,7.546167108659452e-06,-5.3815481953279876e-05
0.0016206387987878887,3.8937084336522686e-05,-6.142756472680049e-05
0.0,0.0,0.0
0.0,0.0,0.0
-6.240027372784894e-05,3.727731260633147e-06,2.6432186882068577e-06
-0.00011283714737506879,3.3441675966504458e-06,4.808603123067407e-06
-0.00015603373429639268,2.5991857518009473e-06,6.607460199750767e-06
-0.0001887805844013487,1.638038232696862e-06,7.917226460448767e-06
-0.00020881602054201377,5.828481451369923e-07,8.646408056450298e-06
-0.00021518290250818636,-4.336780122535708e-07,8.77018501211737e-06
-0.000208359050985365,-1.2891663528328108e-06,8.334282434502582e-06
-0.00019018685533294034,-1.8924460654434484e-06,7.445838663554564e-06
-0.00016360392551422877,-2.1980014837836257e-06,6.254636038563609e-06
-0.00013223522422173314,-2.2119647689511056e-06,4.928654248533145e-06
-9.988946628271984e-05,-1.989035076098934e-06,3.6275331356265893e-06
-6.996588948742387e-05,-1.6191607393054635e-06,2.4773235815913254e-06
-4.484538705576094e-05,-1.2048845135736564e-06,1.5515591022449532e-06
-2.546417641708278e-05,-8.362182092712387e-07,8.644480221685734e-07
-1.1259868694288027e-05,-5.738391497797029e-07,3.7823934128648075e-07
-4.836274226481908e-07,-4.477022250753511e-07,1.997439072448468e-08
9.3429958798456e-06,-4.6921892401899194e-07,-3.015854311091238e-07
2.1090379091390515e-05,-6.485717612303879e-07,-6.865336162255148e-07
3.7934545118387495e-05,-1.0084397774781481e-06,-1.2441906701759992e-06
6.346648520044072e-05,-1.5900607114007812e-06,-2.1000174046032813e-06
0.00010186538684933936,-2.4508348694011786e-06,-3.404399573316774e-06
0.0001579431610078771,-3.6564505853092444e-06,-5.336942773583171e-06
0.0002370449408996609,-5.2657488265544645e-06,-8.10597401116034e-06
0.0003445607716055961,-7.315907201323409e-06,-1.1933956305409155e-05
0.00048545414487588767,-9.795355965368276e-06,-1.7042731700941428e-05
0.0006630070614651291,-1.263535941197321e-05,-2.360785184473554e-05
0.000878602331252403,-1.5665383200363273e-05,-3.174722354069321e-05
0.0011291336028458954,-1.8658723706599016e-05,-4.1419894661734525e-05
0.0014095376852507396,-2.121760893681927e-05,-5.2501281394316686e-05
0.001705310278560273,-2.3044562503577576e-05,-6.4509491609391e-05
0.0020074323711350827,-2.3437500737261225e-05,-7.70887095100505e-05
0.0022812713067384017,-2.2509899131029034e-05,-8.897416412743534e-05
0.0025351826255594397,-1.875091398753474e-05,-0.00010020105557658634
0.0026792796602079856,-1.4439789328123706e-05,-0.00010763397822728587
0.0028287842244512458,-4.363031843026003e-06,-0.00011445681829573307
0.0026752869270785747,2.599877989279585e-07,-0.00011089737432377648
0.0027997813718576505,2.162257141157407e-05,-0.0001139791016973854
0.0019752419733857236,1.2224797773943666e-05,-8.719868714715865e-05
0.002670541972187167,6.547164495955558e-05,-0.00010081410897685288
0.0,0.0,0.0
0.0,0.0,0.0
-0.00010270181654417843,6.439369029679746e-06,4.379800994791765e-06
-0.00018490436291328368,5.803671404236471e-06,7.943599541036173e-06
-0.0002557505535486326,4.550195716113655e-06,1.0913559267233985e-05
-0.00031024100882608944,2.92809877530357e-06,1.3101162903066144e-05
-0.0003447427263695372,1.1371503844199612e-06,1.4358302436295726e-05
-0.0003575586487475154,-6.047452827367452e-07,1.4639296836825466e-05
-0.00034914977179664346,-2.0940379205491265e-06,1.400821016059206e-05
-0.0003220762029709608,-3.175035043190633e-06,1.2625953371137525e-05
-0.0002806414744463634,-3.763607021808434e-06,1.0722693063985535e-05
-0.00023032928773778375,-3.857980983014804e-06,8.561673771087908e-06
-0.00017710321763964672,-3.5364953308665475e-06,6.39964820281793e-06
-0.00012654390472719202,-2.940379996615069e-06,4.447784005520815e-06
-8.286523178924851e-05,-2.240657560820236e-06,2.839326933520081e-06
-4.8085988373762626e-05,-1.5972289894969082e-06,1.6133129751886965e-06
-2.172271228104215e-05,-1.1270969916575908e-06,7.201528426276297e-07
-1.1188353704090284e-06,-8.960549352654354e-07,4.4693735772427696e-08
1.7859841383088415e-05,-9.344332900693613e-07,-5.665019395280792e-07
4.0195284190536207e-05,-1.264661938286006e-06,-1.2868943630707754e-06
7.143740576253776e-05,-1.925125915552977e-06,-2.3065214414819317e-06
0.00011774227264913229,-2.981660281143622e-06,-3.839426964720091e-06
0.0001860500728372559,-4.523613434791642e-06,-6.135130606074193e-06
0.00028405940544911154,-6.650300188474988e-06,-9.482625271425323e-06
0.0004200209143209913,-9.443991112370413e-06,-1.4208083564392095e-05
0.0006018504929439307,-1.2946758627976298e-05,-2.0647606469677193e-05
0.0008364669519599216,-1.7113947789010676e-05,-2.912627102774132e-05
0.0011276467684666349,-2.180982940414483e-05,-3.987918301842908e-05
0.0014762093678552081,-2.672719454594209e-05,-5.305072025843119e-05
0.0018753721246341675,-3.149198819231113e-05,-6.851439916697821e-05
0.00231654399312624,-3.543379995057533e-05,-8.605108401122179e-05
0.0027748570973576856,-3.812645353962667e-05,-0.0001048310367845966
0.0032387894952606144,-3.83801686295553e-05,-0.00012436962529788946
0.003649942709936553,-3.658684087372237e-05,-0.00014255421702032871
0.004033107585217542,-3.0044870498446396e-05,-0.00015978123093550968
0.004231763723279999,-2.3067945074051208e-05,-0.0001706984454311677
0.004463738075723219,-6.211982530720803e-06,-0.00018133315505268217
0.004187689332740407,5.438371701827378e-07,-0.00017485719350706543
0.004423442779358099,3.6149528593414396e-05,-0.00018071640446514555
0.0030721287866348353,1.9160353198920953e-05,-0.00013754240353154793
0.00428026137318717,0.00010706674458979044,-0.0001610507598429828
0.0,0.0,0.0
0.0,0.0,0.0
-0.00016447606851801476,1.0837700637821924e-05,7.068657991585542e-06
-0.0002946440580650408,9.809851902780758e-06,1.2776202541694995e-05
-0.00040747035256283147,7.751912231361912e-06,1.7543532599153885e-05
-0.0004954124848274704,5.082479245592e-06,2.1091112287436983e-05
-0.0005528300653776844,2.120965315976601e-06,2.3186927671694034e-05
-0.0005768702430052568,-7.837710513207447e-07,2.3752144689199125e-05
-0.0005678201691707052,-3.302509682785926e-06,2.2874003667294314e-05
-0.0005290834739705867,-5.177962927601127e-06,2.0787811831209838e-05
-0.0004667285461467628,-6.262280844060327e-06,1.7837144286208306e-05
-0.0003887348984794149,-6.535009433873728e-06,1.4421610889408557e-05
-0.0003040637090614165,-6.1029247105149474e-06,1.0939863392685459e-05
-0.00022147869659346013,-5.179481937999449e-06,7.731810648819962e-06
-0.00014805894109011167,-4.039355514612412e-06,5.026681704370292e-06
-8.773270976146254e-05,-2.9553922922036023e-06,2.9103844784760536e-06
-4.045859446850725e-05,-2.1424583895847665e-06,1.3243854861512547e-06
-2.4280357165525957e-06,-1.7343570101539035e-06,9.457279981386038e-08
3.296227382218157e-05,-1.8008070268559897e-06,-1.0272678452407111e-06
7.401637059740597e-05,-2.388591269548308e-06,-2.3305659080407497e-06
0.0001300715767111338,-3.560972393132489e-06,-4.133937739526016e-06
0.00021131100478998153,-5.418669911531699e-06,-6.790200604497415e-06
0.00032886201108677497,-8.094033265461384e-06,-1.069964717434354e-05
0.0004945884104092027,-1.172940375452409e-05,-1.6311343711632547e-05
0.0007207258913853157,-1.6430730487793488e-05,-2.4118180263466286e-05
0.001018338458732101,-2.223409560538593e-05,-3.460819341586087e-05
0.0013965322499231013,-2.9026934294733914e-05,-4.8239311063811885e-05
0.0018588384750428777,-3.655981175684619e-05,-6.530488527957038e-05
0.002404562551640192,-4.430060445265819e-05,-8.596727132238093e-05
0.0030204251379126208,-5.165909510890018e-05,-0.00010993754957981613
0.0036929211883367126,-5.753425744123059e-05,-0.00013686333944394098
0.004380684508687604,-6.13631173880886e-05,-0.00016535963274607002
0.005071562862574237,-6.116069794760497e-05,-0.0001948410412649651
0.005668769880544664,-5.792152039616398e-05,-0.0002218466488092045
0.0062313208885175905,-4.6895162715012583e-05,-0.00024759397341559287
0.006491427915526006,-3.5991759461541996e-05,-0.00026311716341937915
0.0068465573562408,-8.522612869254965e-06,-0.00027939795739410006
0.006368983412439188,8.626946409797593e-07,-0.00026814871236373225
0.006800031698944244,5.872454242986448e-05,-0.00027889419923092615
0.004643262947714798,2.906434063389306e-05,-0.0002111918593624401
0.006678285795218317,0.00017040529958793976,-0.0002504392526935401
0.0,0.0,0.0
0.0,0.0,0.0
-0.00025627970280293975,1.7774770384550857e-05,1.1131511161436958e-05
-0.000456485499986594,1.6153089258141635e-05,2.004172891563215e-05
-0.0006309312805256366,1.2855629098830373e-05,2.7491963561616396e-05
-0.0007686061687098572,8.57086587357415e-06,3.3082583484224424e-05
-0.0008610394166501104,3.7981458815678306e-06,3.646204202341843e-05
-0.000903647898061633,-9.176710642073943e-07,3.750290193419033e-05
-0.0008962661888416697,-5.058370458328454e-06,3.632286271495733e-05
-0.0008431982530137241,-8.211893855576299e-06,3.325918172128116e-05
-0.0007526688510615885,-1.0129807367663719e-05,2.8811785055963426e-05
-0.0006358409178059308,-1.0755261374038296e-05,2.3569331519870476e-05
-0.0005056321826510038,-1.022629522351184e-05,1.8129806895738992e-05
-0.0003752066978363082,-8.853561490051206e-06,1.3019124508161468e-05
-0.00025587614812745387,-7.0620836470730085e-06,8.61265145601733e-06
-0.00015470385176940142,-5.299525184414239e-06,5.076943041172689e-06
-7.277599149413943e-05,-3.9429086723399635e-06,2.3535236518237916e-06
-4.984364798498986e-06,-3.2477082767396993e-06,1.9040624439209023e-07
5.875540599428189e-05,-3.3595720110502267e-06,-1.798652503787692e-06
0.0001317283994301328,-4.371331851714572e-06,-4.0786801431314986e-06
0.0002290551749420347,-6.384760650851289e-06,-7.1649597370605035e-06
0.00036698679644584176,-9.547369810250431e-06,-1.1619511487543228e-05
0.0005627505474997295,-1.4044756772880372e-05,-1.8063602483578346e-05
0.0008339504179944799,-2.0068833810758806e-05,-2.7171491316175367e-05
0.00119800665965261,-2.7740841962572804e-05,-3.966273469413378e-05
0.0016695543940588946,-3.706789170562e-05,-5.621821737354656e-05
0.002259809988095869,-4.781064387441095e-05,-7.745909685580595e-05
0.0029705068078466775,-5.953779688087098e-05,-0.00010371977313681583
0.003797986320627567,-7.1359870458527e-05,-0.00013516614302236106
0.004718105130684286,-8.238807331256052e-05,-0.00017122627087556218
0.00571126131624328,-9.085590701562566e-05,-0.00021138491380708852
0.006710409165453803,-9.61041843092491e-05,-0.0002533946709270026
0.007708044186923815,-9.486722108570364e-05,-0.00029668928989766197
0.008546186214270357,-8.933980414706062e-05,-0.0003356971283106855
0.009349911564579049,-7.13154294824494e-05,-0.00037329303694679655
0.009669260167655652,-5.487202445280772e-05,-0.00039472917857334976
0.01020600323659541,-1.12452978849683e-05,-0.0004193083330752152
0.009408145810980477,1.0195198280535656e-06,-0.000400599885271689
0.010169586214100775,9.270466211878857e-05,-0.00041962094308237857
0.0068163976138813625,4.259513411173586e-05,-0.00031625397646728795
0.010143089125497893,0.0002639313854479061,-0.0003795956680568074
0.0,0.0,0.0
0.0,0.0,0.0
-0.00038937861997243305,2.844938091616739e-05,1.709491853904779e-05
-0.0006890886415622572,2.594465226941219e-05,3.0645549134964364e-05
-0.0009513866633779764,2.0774645780192408e-05,4.197568178270545e-05
-0.0011606799382506438,1.405128387955523e-05,5.0537090694597944e-05
-0.00130466480573471,6.541204495350485e-06,5.581404843785519e-05
-0.0013763328466075287,-9.229543963511187e-07,5.761071277157429e-05
-0.0013747068918556623,-7.546229183895711e-06,5.608415951946963e-05
-0.0013050007799094866,-1.2689039283139933e-05,5.170785736657537e-05
-0.0011779693912326366,-1.5952129649411072e-05,4.519117406888781e-05
-0.001008645384039943,-1.7216986383900878e-05,3.737635411240604e-05
-0.0008148850481284989,-1.6653130855601096e-05,2.9130880234811968e-05
-0.0006155817818738105,-1.4696636873672353e-05,2.123789066457721e-05
-0.0004279272526565322,-1.1981536755984934e-05,1.4284342596586468e-05
-0.0002637834666490595,-9.21452003310027e-06,8.565814581467407e-06
-0.00012649403700011396,-7.028995194984053e-06,4.04251962935371e-06
-9.736455133745351e-06,-5.8865331983297785e-06,3.661058676156242e-07
0.00010118990800410284,-6.069893454831082e-06,-3.04131299448642e-06
0.00022667360309128252,-7.754898556632194e-06,-6.899084896588113e-06
0.00039027814342012455,-1.1101803837100365e-05,-1.2011002028983107e-05
0.0006170251567501016,-1.63173128881542e-05,-1.924221147357465e-05
0.0009326825220861513,-2.3646013643911335e-05,-2.9525784158590613e-05
0.0013624063971542622,-3.3328537209729185e-05,-4.3839907230551715e-05
0.0019300129269774998,-4.547745917127386e-05,-6.319971936765926e-05
0.0026536939393646355,-6.003046287965613e-05,-8.851589658769913e-05
0.0035462493069852133,-7.652849935757346e-05,-0.00012059994830695384
0.004604907904902614,-9.426687347340962e-05,-0.00015978194329982148
0.00582122193845992,-0.0001118071267895191,-0.0002062122189940904
0.007153785981702334,-0.0001278779010036171,-0.0002588507359553513
0.00857683516999102,-0.00013970270640136528,-0.0003170208813357549
0.009984162048359899,-0.00014666755050558286,-0.00037716073405536914
0.011384468442245032,-0.00014346322826358114,-0.0004390141982966163
0.012523320202534645,-0.00013452532331058507,-0.0004937524335698212
0.01364583508526495,-0.00010592730489470327,-0.0005473482068914083
0.014009347938972039,-8.200724367590381e-05,-0.0005759957608950103
0.014814425409463957,-1.4396973996702853e-05,-0.0006125268297002686
0.013525794565988241,4.95337045576994e-07,-0.0005825533939158032
0.014826388919061923,0.00014233063635235105,-0.0006150765629305586
0.009741990824696248,6.039087029913729e-05,-0.00046145432961223955
0.015021100741609996,0.0003983958898786516,-0.0005605111421523683
0.0,0.0,0.0
0.0,0.0,0.0
-0.0005761307029276747,4.4420551491515065e-05,2.5698221244469177e-05
-0.001012137125753351,4.063760985549341e-05,4.584841981543039e-05
-0.0013952522388507053,3.271333415910666e-05,6.266578290249453e-05
-0.0017041263760990254,2.2406709313194418e-05,7.542732351469918e-05
-0.00192144542819704,1.087160180301759e-05,8.340210138234521e-05
-0.002036882215909789,-6.475688490622272e-07,8.631020467078326e-05
-0.0020480769101111646,-1.0961224287690953e-05,8.43701589225069e-05
-0.0019609695210595322,-1.9104876412767658e-05,7.824329205237168e-05
-0.0017890692262994199,-2.4461307491982094e-05,6.891881917351607e-05
-0.0015518410784411626,-2.6815552439723676e-05,5.757156392366776e-05
-0.001272944274461774,-2.6364756631632403e-05,4.54199176632666e-05
-0.0009782820916818945,-2.3700097901077778e-05,3.35857578842969e-05
-0.0006927306357579499,-1.9734159162551483e-05,2.294520438368794e-05
-0.0004350437927160636,-1.5541347991795772e-05,1.3985181745433792e-05
-0.000212525438973459,-1.214261741818469e-05,6.714871888676812e-06
-1.8162371326736012e-05,-1.033154099915788e-05,6.745489071381713e-07
0.00016843932635818534,-1.0624762892360763e-05,-4.967323746760365e-06
0.0003772619161541541,-1.3341021027954587e-05,-1.1282326525806374e-05
0.0006436230557152341,-1.8727887463629764e-05,-1.948020227481488e-05
0.0010046761019444487,-2.7062152455013477e-05,-3.0848441891363074e-05
0.0014976596866354745,-3.8642453732883026e-05,-4.67445316146976e-05
0.0021571635564412678,-5.374277170075407e-05,-6.854116687421896e-05
0.0030144208447729637,-7.241683689547025e-05,-9.76257193285648e-05
0.004090334800859494,-9.446813131174353e-05,-0.00013516591987965584
0.005398108626544954,-0.0001190767096951363,-0.0001821900479554284
0.0069260453745692355,-0.00014515009888195566,-0.00023894280065200234
0.008658891142202281,-0.00017042871205476666,-0.0003055542540424689
0.01052866870913849,-0.0001931968038379017,-0.0003802526118001995
0.012505810437013713,-0.00020916600006085618,-0.00046228806076917543
0.01442505340997924,-0.0002180976074915678,-0.0005461361660132405
0.01633339055343148,-0.00021145906172076738,-0.0006324432046285344
0.017826089817625224,-0.00019767390653300019,-0.000707416630012859
0.019356355116495194,-0.00015355894612335418,-0.0007824678441978298
0.01972133956149858,-0.00012005100774034269,-0.0008198570871505569
0.020915378257399697,-1.7810316417657294e-05,-0.0008736679934543434
0.018895360843173805,-1.6343859282192995e-06,-0.0008274810420458281
0.021045401078157458,0.00021247403896707006,-0.0008812751050128041
0.01352751329696073,8.245460310443906e-05,-0.0006586294971871896
0.021671994343519043,0.0005855513429472744,-0.0008085271414972899
0.0,0.0,0.0
0.0,0.0,0.0
-0.0008342941580063465,6.7858299147836e-05,3.771241991572451e-05
-0.0014537618745832665,6.223185572237464e-05,6.692788520999395e-05
-0.0019994902695432736,5.029178165221519e-05,9.123763567359375e-05
-0.0024430029259800254,3.47827170677276e-05,0.00010973777963284569
-0.0027607223008469135,1.7423745365167627e-05,0.00012142528630129045
-0.0029382293359585775,4.5084042924448505e-08,0.00012591774194309983
-0.002971399100946748,-1.5613138566442765e-05,0.00012352100718736903
-0.002866863157117258,-2.814037298152225e-05,0.0001151451958251325
-0.002641161276398793,-3.662385116230177e-05,0.00010214199844116661
-0.002318655088698634,-4.071588192667516e-05,8.610959991501515e-05
-0.0019293898319995887,-4.0638932376753874e-05,6.870783559593438e-05
-0.0015071938828333372,-3.717134734606396e-05,5.148646056617713e-05
-0.0010862355617642988,-3.15821115567804e-05,3.5698143382657977e-05
-0.000694452867249647,-2.5444852153421495e-05,2.2097484455811044e-05
-0.0003453795950518379,-2.03396281395477e-05,1.0788011603067739e-05
-3.246597165140138e-05,-1.7568729113651004e-05,1.1929113444536585e-06
0.00027112746266465677,-1.8026769206752492e-05,-7.837542452147624e-06
0.0006076080275843283,-2.2267777435510102e-05,-1.7839935066694772e-05
0.0010278759711844253,-3.066791971785328e-05,-3.0570555365545985e-05
0.0015851368210951457,-4.358164327879076e-05,-4.788117211852329e-05
0.0023314408268954815,-6.133874102850378e-05,-7.168508018189868e-05
0.0033125774657563937,-8.420973021660671e-05,-0.00010384452787312339
0.004567927039506244,-0.0001121022230781385,-0.000146197132906065
0.006119147368350722,-0.00014459481204778156,-0.0002001701011822273
0.007978205441334076,-0.00018030541647165896,-0.0002670301217926027
0.010118079249513403,-0.000217631137874914,-0.0003467945863268651
0.01251557291920171,-0.0002531170281936522,-0.00043959483062446604
0.015063343999805958,-0.000284611829697279,-0.0005425379780145511
0.01773563259477236,-0.00030558643124916767,-0.0006550321807686793
0.020279271874516683,-0.0003168228734152257,-0.0007686434803318518
0.022818606833967768,-0.0003047439447754819,-0.0008859847723886195
0.02471716331538255,-0.0002845500905498563,-0.0009857964131343158
0.026773312208333278,-0.00021836812718740534,-0.0010886103593316285
0.027074465821386787,-0.00017320804042780937,-0.0011357467843862337
0.028839346227892665,-2.2035493582972984e-05,-0.001213748596646957
0.025768589766971734,-7.305317435703413e-06,-0.001144748833995732
0.0292127734084398,0.00030884765901661337,-0.0012308735941782504
0.018350137952838675,0.00010885355664701042,-0.0009165508022414279
0.030566534889200126,0.0008406224306496854,-0.0011368855105411693
0.0,0.0,0.0
0.0,0.0,0.0
-0.001176828340805827,0.00010121694111722594,5.4469794137209365e-05
-0.0020317833551470326,9.302067666203676e-05,9.61152497252829e-05
-0.0027868953808994376,7.54129647106524e-05,0.00013056273556647232
-0.0034055650967869636,5.258511055061795e-05,0.00015673255191962353
-0.0038565950236532946,2.705088345673718e-05,0.00017330210248297847
-0.004120343809760974,1.4481126570534425e-06,0.0001798084749237665
-0.004190028155428968,-2.173376325067368e-05,0.00017672947817136788
-0.004072411318525057,-4.04838724409411e-05,0.00016534292323547165
-0.0037869125291092637,-5.3496889693520114e-05,0.00014748954642458366
-0.0033628945296635114,-6.0249702872023894e-05,0.00012530571287299445
-0.0028369301154188725,-6.098788642175152e-05,0.00010098817910558067
-0.002251119568631686,-5.6709784024777225e-05,7.659664657400054e-05
-0.0016500654618731923,-4.912313229901819e-05,5.383957089481821e-05
-0.0010731742894526312,-4.045147895325546e-05,3.3815171862979124e-05
-0.000543059412577026,-3.3047190849744534e-05,1.6775070113997793e-05
-5.569765332599973e-05,-2.8957095800604063e-05,2.0299885612798245e-06
0.0004221833244805806,-2.9657610122654622e-05,-1.1949393004791557e-05
0.0009473283803703559,-3.607403476077221e-05,-2.7285435075176346e-05
0.0015901949764161659,-4.8769125554502816e-05,-4.64394056456383e-05
0.00242419126561981,-6.817667921056189e-05,-7.198748990688069e-05
0.003519662914091432,-9.460581383782964e-05,-0.00010654731906042713
0.004934827357094764,-0.0001282548339865336,-0.00015256680135724142
0.006717359389540868,-0.0001687424298806447,-0.00021241879727309116
0.008885919008888857,-0.0002153011569352489,-0.0002877676400823301
0.011449060010874703,-0.0002657012595395018,-0.00038016397079609324
0.014354964711746191,-0.0003177149097993218,-0.0004892016631027852
