0.08388666079893603,-0.004161857016278822,-0.0013931705605196856
0.09033250468556119,-0.004499232027541978,-0.0017875813364838997
0.0966530935125155,-0.004804653651548429,-0.0022120803426097283
0.10289761171037215,-0.005072379368091143,-0.002664991672130256
0.10900619917835051,-0.00530164195803716,-0.0031426799564052074
0.11508226874164117,-0.005485452265918143,-0.003644862001283145
0.1209654415063566,-0.005627606659389522,-0.004166456904830768
0.12689305861330855,-0.005715771597207079,-0.004709723357603851
0.13247758460982068,-0.005762745485742554,-0.005265810443604955
0.1382802298146807,-0.005742537962351114,-0.005842078447515337
0.14340300079173984,-0.005688118172734902,-0.006421187644681315
0.1491593120919864,-0.0055420794999793506,-0.0070213137767819855
0.15350498757899958,-0.005383485017490132,-0.0076071763437317915
0.15944933296485322,-0.005084967874979797,-0.00822005105763682
0.16240838331937463,-0.0048290728111749556,-0.008787951956929156
0.16914367669775315,-0.004334641869567328,-0.009400786121853511
0.1695220048759336,-0.004011717811904092,-0.009912662173273723
0.17845523778803507,-0.0032456824895152466,-0.010513662594466889
0.17384727375216968,-0.002938206059046824,-0.01091076276143732
0.18806198036652588,-0.0017606886634448627,-0.011496640699103652
0.1735810523867332,-0.0016602529401053751,-0.011688117044688555
0.19965560742230046,0.00020188790725392695,-0.012280546070796547
0.1653986103341628,-0.00031535549224623235,-0.01212061311353296
0.21701398483138304,0.0027791583832200237,-0.01278467279826623
0.1429171052670248,0.0007940565966752912,-0.011977770147503891
0.24789924342569136,0.006210578539993326,-0.012683785264484026
0.09373450753035695,0.0010064206762582044,-0.010118136069281988
0.307637667474506,0.010747253152753903,-0.009361304227983314
0.0,0.0,0.0
0.0,0.0,0.0
0.007331580830605549,-0.0003889127023780462,0.00032273281431173105
0.014323345097140868,-0.0005535329715439291,0.0005029236810525834
0.021524966765907122,-0.0008135198441359618,0.0005794327104733219
0.02884740563218323,-0.0011417400652496365,0.0005848570586452197
0.03623157934101632,-0.0015207637260814934,0.0005326321455861654
0.043623443906481194,-0.001936595260650355,0.0004265192235708362
0.05097871135011983,-0.0023763378462499513,0.00026761639728739795
0.058259581855618865,-0.0028280423796200136,5.734013852543478e-05
0.06544496778006269,-0.0032805167545486326,-0.0002021495664323071
0.07251613981571553,-0.0037241198077651695,-0.0005077639954177308
0.07947803957581752,-0.00415000380680408,-0.000856326638667656
0.08632131684490935,-0.0045515481929666755,-0.0012440892894394456
0.09307591008714172,-0.004922026661199868,-0.0016681655248720428
0.09971959524028422,-0.005257983093260873,-0.0021248134333412185
0.1063137630815081,-0.005553483077447541,-0.0026123099656964036
0.11278544583539449,-0.00580855724738125,-0.003126674984943985
0.11926122334639418,-0.006015474323839,-0.0036680692500443354
0.1255480533591829,-0.006179431143309247,-0.004231019633215956
0.13193095126986673,-0.006286103336294798,-0.004818799464882134
0.1379495350937409,-0.006351031812343972,-0.005421731507714167
0.14426631085517266,-0.006343732125260044,-0.006049007789562265
0.14982910452176557,-0.0063029046967899675,-0.006681419153266577
0.15616605380327245,-0.00616168085700327,-0.00734033589775395
0.16091408309397837,-0.006011250810404054,-0.007986544840649363
0.16752865117745067,-0.00570499738227633,-0.008666929835246593
0.17077605863269324,-0.005450829729956481,-0.009301776197235417
0.1783291717105205,-0.0049290559161266,-0.009990975724484723
0.17874996650922478,-0.0046016992975659865,-0.01057414792057559
0.18878212116407167,-0.003777826534652333,-0.011259298778127905
0.18373595357961758,-0.0034638095153967205,-0.011727001695914866
0.1996067410292196,-0.002181269693930101,-0.012402271891145678
0.1837732133899885,-0.002084994938341165,-0.012654647280037519
0.2126146346189106,-4.4103525974408e-05,-0.013337946155411763
0.17529630950875189,-0.000606113514323937,-0.013214361060799266
0.23188011444245007,0.0027857118023904407,-0.013964015622526863
0.15153951525937745,0.0006526526593363356,-0.01313547562936427
0.2657427761055015,0.006560674296838687,-0.013882162975758236
0.09937759295385279,0.000976623846295289,-0.011105686588201982
0.3304814506980613,0.011517671662143219,-0.010142016420617305
0.0,0.0,0.0
0.0,0.0,0.0
0.00694768179425855,-0.0002959768999968742,0.0004314060670014827
0.013935529021021385,-0.00048275964643879695,0.0006818400478394842
0.021188892255899157,-0.0007833449397179545,0.0008055456351282456
0.028608652176731978,-0.0011612918058201767,0.0008429426152839319
0.03613529978511966,-0.001595015858876124,0.0008108052492810482
0.0437118639405709,-0.002067512232318156,0.000714408402266547
0.05129004214982296,-0.0025635345544780417,0.0005558778139685038
0.058826113893525496,-0.0030694445082170693,0.0003377215085832806
0.06629492695151927,-0.0035728859282790257,6.326453410743696e-05
0.07367212048412582,-0.0040636838070336944,-0.00026315694534246226
0.08096226854770758,-0.004532731447483251,-0.0006372849444561053
0.08815129581024428,-0.0049736894060127415,-0.0010543364390345148
0.09527450078960363,-0.005379950050945094,-0.001510785748108814
0.10230270408209793,-0.005748792305719417,-0.0020022279461525713
0.10931046369508753,-0.0060742355571959455,-0.0025268751915718465
0.11620862510204749,-0.0063573960687228715,-0.0030803507102436165
0.1231506042468847,-0.006589792310406768,-0.0036633485760392925
0.129905773184872,-0.006778332082139229,-0.004269985246493373
0.1368144457847905,-0.006906479742531015,-0.00490473530525265
0.14333417241176077,-0.0069929488845643815,-0.005557062486204391
0.15024289550670555,-0.007002223150176126,-0.006238273819943857
0.15631674480250127,-0.006979439983744408,-0.0069271898207395495
0.16332414790831992,-0.006847205073619285,-0.007648771629955187
0.1685505765274164,-0.0067100682975317905,-0.008359637076057736
0.17594309467171218,-0.006400203966944236,-0.009112821266678938
0.17955850657782846,-0.006153096394797911,-0.009820406314526282
0.18806129627132004,-0.00560702794081171,-0.010593030687853066
0.18860067648182596,-0.005279989249475128,-0.011254943591035595
0.19989458942227759,-0.004398570007547118,-0.012033223693502251
0.19446567092436765,-0.0040810859021160285,-0.012580431818487623
0.2121937586486386,-0.0026885881759564404,-0.01335584206360318
0.1950051445036252,-0.0025968268175559305,-0.013678710295263534
0.22686138769544933,-0.0003638924699183104,-0.01446488182198323
0.18635329950762936,-0.0009682009665474183,-0.014386213251809107
0.24822480463657998,0.0027461469491310876,-0.01523333403180487
0.16128038032293163,0.00046776983923822426,-0.014385914607989665
0.2851776813874838,0.006908277057762039,-0.015178481470839104
0.1058340654307949,0.0009361833017814013,-0.012172828463396306
0.35504092943116344,0.012341613822046495,-0.010980846617581929
0.0,0.0,0.0
0.0,0.0,0.0
0.006398447579071632,-0.00016166419901097217,0.0005724053164494274
0.013366947130543892,-0.0003738233471028051,0.0009143002570045948
0.020658618046871954,-0.000721957278312853,0.0010995080883632895
0.02815702171016829,-0.0011579380084080655,0.0011780374498368666
0.03580141541537102,-0.001655136686137287,0.0011708168042413585
0.04353309743066197,-0.002192940839521657,0.0010852886660022766
0.05130259665849477,-0.002753330341122299,0.0009253272004989732
0.059063380266727174,-0.003320709165586435,0.0006953234233715352
0.06678942256246721,-0.0038813971254916192,0.0004005271473804398
0.07445234271997615,-0.004424661976118127,4.7188584296278085e-05
0.08205766320733372,-0.004941174914991132,-0.00035885679350377474
0.08958552962665713,-0.005425040942001921,-0.0008114313278958198
0.0970766210445772,-0.005869910650811432,-0.0013061907266926631
0.1044918216257129,-0.006274065466143009,-0.0018379571161107862
0.11191948307255532,-0.006631599306748189,-0.002404922116230271
0.11924987626243039,-0.006945024295587776,-0.003002331570131876
0.12666630757110459,-0.007205103197604774,-0.0036315944823740063
0.13389399943109037,-0.007420811886792757,-0.004286473105960602
0.14133594917656805,-0.007573175856591201,-0.004972925996620692
0.1483565540193695,-0.0076845639943452365,-0.005679589692356294
0.15586364770285013,-0.007713856137498286,-0.006420273573852039
0.1624417731855388,-0.007713394279276593,-0.007171782287729404
0.17012625627480166,-0.007594127517107285,-0.00796319124946382
0.17581531836091752,-0.007475286662203984,-0.008746754789578311
0.18399544023203926,-0.007165771894555708,-0.009582369190289184
0.1879495615084271,-0.006931010839440213,-0.010373437329057876
0.19741916552409472,-0.006363610299522842,-0.011242321905862246
0.19802604677210595,-0.0060418275983877565,-0.011996892353703716
0.21061610399578126,-0.0051033568289374975,-0.01288470973374521
0.20471994708520258,-0.004786315904687569,-0.013528281556948542
0.22437899889932536,-0.003279888396969886,-0.014423354597562076
0.20569942616940123,-0.00319524384915839,-0.014834861013346516
0.24072587787670702,-0.0007594174665817144,-0.01574460678425378
0.19681187731317124,-0.001408135085012719,-0.01572612370425596
0.2642873088245576,0.002649273911739645,-0.01668814397615267
0.17040234584217293,0.0002215671313805316,-0.015824700025936528
0.30459089091703745,0.007226966082148652,-0.016666562996195636
0.11177615094746488,0.0008578208149545184,-0.013398035055272938
0.37999583096590805,0.013163764323342831,-0.011946102537012521
0.0,0.0,0.0
0.0,0.0,0.0
0.005360293490879589,4.7237221321900147e-05,0.0007395210823490265
0.012082820774066298,-0.00019628325929542409,0.0011881368750134129
0.01923006382939546,-0.0006060048298572575,0.0014436098059151222
0.02667191304159648,-0.00111698862032495,0.0015681109555705972
0.03435079959952099,-0.001695242457732843,0.0015880112339812446
0.04220458880910054,-0.0023148542666352615,0.0015136483567756123
0.05017637943378269,-0.0029539073595160614,0.0013511456898499172
0.05820752304566869,-0.0035943176174835765,0.0011071994034018255
0.06626175798450112,-0.0042210239107823054,0.0007893525512431634
0.07429757847398334,-0.004823058175903951,0.00040611399345875503
0.08231522976030518,-0.0053913403389420165,-3.482824420485241e-05
0.09028333861284649,-0.005921012871743064,-0.0005256583866844999
0.09824615006548074,-0.006406466244640486,-0.001061080016132162
0.10615118555325433,-0.006847514874196613,-0.0016350248191006847
0.1141023926183512,-0.007238602098485835,-0.0022456885685820764
0.12196609558911026,-0.007584060997866673,-0.002887920996845932
0.12996067387202187,-0.00787392751014435,-0.003564009516325129
0.13776159296734458,-0.008119657087069045,-0.004267383285023358
0.14584434819288142,-0.008299591671419521,-0.005005768542334188
0.15346951580286933,-0.008440290027985667,-0.005766971334720344
0.16169215598401213,-0.008494413322471618,-0.0065677127770960835
0.1688850128143397,-0.008522349379780919,-0.007382685642211282
0.1773807223079754,-0.00842217896141529,-0.008245652946490267
0.18365301969478587,-0.008329231496318814,-0.0091042248979014
0.1927809994574168,-0.008026895343383514,-0.010025971618200919
0.1972055776103608,-0.007813016469130974,-0.010904992935684912
0.2078382088658655,-0.007230506073381462,-0.011876570127531023
0.208649398929918,-0.006922298721055179,-0.012730945314793516
0.2227775560017984,-0.005930013260487241,-0.013738037037624502
0.2165361274204352,-0.0056195981751173485,-0.014487904936060756
0.23842199970249517,-0.003995621648403037,-0.015515941435734495
0.21830904974068135,-0.003919693270122078,-0.016028192455907222
0.2568576606228076,-0.001265173475232413,-0.01707813908551589
0.2094291936570166,-0.0019536840510701466,-0.017132153825479793
0.28292689418740474,0.002480943049631283,-0.018227335752381862
0.18165263716553623,-8.793565343668739e-05,-0.017354134623778477
0.3267077870311947,0.007541445056042765,-0.018256127461075872
0.11930597224786767,0.0007689921243606544,-0.014705900699475008
0.40773416252026035,0.014074176431761513,-0.012969429160035
0.0,0.0,0.0
0.0,0.0,0.0
0.004177981763735368,0.0003121683267897341,0.00095810046882545
0.010718863174589251,3.214236687801026e-05,0.0015470752436521225
0.017776287960715374,-0.00044954283925544404,0.00189443143627198
0.025190731221804492,-0.0010475866098992315,0.0020771311652203117
0.03290461541872512,-0.0017191891855155997,0.002128532928642276
0.0408550845624713,-0.0024322281544807683,0.0020633958851868097
0.04898502897431789,-0.0031603230603063064,0.0018917815944065042
0.05723214665698567,-0.0038826021367309336,0.0016243993435651543
0.06555828385526224,-0.00458248779626802,0.0012725764215730303
0.07391403323570822,-0.005248830698992046,0.0008482444914040304
0.08229811700383732,-0.005872933390217155,0.00036170480656912184
0.09066724297003838,-0.006451279706152722,-0.00017713351736400578
0.09906965710080808,-0.0069792653281149425,-0.000761876168302044
0.10743562072266608,-0.007458663285533269,-0.0013855389330686846
0.11588537913808528,-0.007884485865116862,-0.0020465002065441222
0.1242555147529208,-0.008263336096854207,-0.002739345975207735
0.13280320285617844,-0.008584557554194665,-0.0034675702072340846
0.1411458081017192,-0.00886256252172687,-0.004224412864188063
0.14984036117802074,-0.009072757561922041,-0.005019801019169356
0.15802996199392857,-0.009246499366306728,-0.0058407949888098784
0.16693433891635853,-0.009329566215930086,-0.00670759832091108
0.17469034886953974,-0.009391322666664939,-0.0075927597140526765
0.18395956982509287,-0.009315666517122321,-0.008535520521875794
0.19074840720630537,-0.009255584993396624,-0.009478603103318082
0.20078510173420686,-0.008966548161607173,-0.01049838753390585
0.20559205853283508,-0.008781566516089499,-0.011479012113749262
0.217351624260825,-0.008189588009988431,-0.012570338341733784
0.21824690163065869,-0.00790319516761908,-0.01354349031502673
0.2338916728291062,-0.006860381799217194,-0.014693225922051356
0.22713956970398802,-0.0065640624248665845,-0.015574005934529272
0.2512764987988615,-0.004820779435248887,-0.01676471197416539
0.22950552704526422,-0.004759586637890502,-0.017406101047518573
0.27171210412213176,-0.0018761907991178442,-0.01862971095688381
0.22046774542450945,-0.0026095983680981855,-0.018782041057816213
0.3003565981774274,0.0022247061156320143,-0.02004004588192807
0.19129643579914252,-0.0004917487981243873,-0.019164609716305556
0.34798900961710716,0.007798374954289962,-0.020134903591470417
0.12554245647186352,0.0006146861162789046,-0.016254702967771636
0.4352776968197704,0.014950901589248682,-0.01419039142310655
0.0,0.0,0.0
0.0,0.0,0.0
0.002179561405825008,0.0006970591898886099,0.0012108177764931745
0.008149122118979148,0.0003690399463352437,0.0019585782248495486
0.01481408190493092,-0.00021037538088215633,0.0024062204247905722
0.021995211987967507,-0.0009259527550822782,0.002649672416841051
0.0296407032274292,-0.0017213046402247468,0.002731702043837966
0.0376787717380851,-0.0025547764729172695,0.0026729517436008482
0.04603455950458878,-0.0033936299045720314,0.002488359527814284
0.05462013551088095,-0.004213659065602258,0.002193307528523032
0.06337524635108903,-0.004997186870126818,0.0018033871236632906
0.07222542376476442,-0.005733914011973057,0.0013343439184452252
0.08115723584737225,-0.006416700097486649,0.0007993670950235569
0.09010742483517402,-0.007044577021554527,0.00021068144485929382
0.09912661284345507,-0.007614856842221565,-0.00042414390335484046
0.10812456355806263,-0.00813212584662571,-0.0010971492782970308
0.1172415457392,-0.008592397994097938,-0.0018070123248619713
0.1262813090436552,-0.009005120966352784,-0.0025481000931321263
0.1355475207180943,-0.009358986460267026,-0.003325383973096034
0.14459322211305417,-0.009671879961043111,-0.004131975931576328
0.1540700591176817,-0.009915969016822113,-0.004980412617108647
0.16299100863507854,-0.010128080080581948,-0.005857003876641428
0.17276262699949754,-0.010246377141186157,-0.006786019684456395
0.18126155748353337,-0.01035026211562886,-0.0077377035107798675
0.1915164549534601,-0.010308027559019462,-0.00875763401335958
0.1990214745927105,-0.010292079858749097,-0.009783188514467129
0.21022026118051196,-0.01002732084678109,-0.010900866754754547
0.21563432292104504,-0.009884921742907341,-0.01198383216550164
0.22883210691358866,-0.009295021631549527,-0.013198582845035079
0.2300583305684951,-0.009045070508081779,-0.014295083120909716
0.24760503096509873,-0.007960616066490272,-0.01559627671563188
0.24058895611621745,-0.007690904047950291,-0.01661711378802259
0.26744650274265125,-0.005828520676060829,-0.0179856101095094
0.24419703242273874,-0.005787530949146837,-0.01876989641703751
0.2906061758731836,-0.0026574556868457556,-0.020189326847636517
0.2355027122617647,-0.0034290032230620947,-0.020456703947339894
0.3223795947317954,0.0018524605958862765,-0.021905339775065088
0.20497281068726195,-0.000993629481085515,-0.021039827053265212
0.37403227717310905,0.008047024197361244,-0.022099533071273113
0.13486851011939985,0.0004516185331892939,-0.017873440885833248
0.46755648904985464,0.01598029199497168,-0.015454127483359382
0.0,0.0,0.0
0.0,0.0,0.0
0.00017366447491842395,0.0011498569768827998,0.001550032933211972
0.005825871537136334,0.0007653708267019159,0.0025130408492939826
0.012307335310725592,7.305456087770278e-05,0.0030952886644181462
0.019385996226017218,-0.0007767528798337067,0.0034156918793157246
0.027008576824369645,-0.0017118035417438982,0.0035297094854074692
0.03510310464731352,-0.002679731978383319,0.0034675803485475177
0.043596721753163696,-0.0036409365333143237,0.003253056076250138
0.05239833989038758,-0.004567758761885793,0.002909796728912318
0.06144614580152953,-0.005441462206763418,0.002460463950110859
0.07065393385159545,-0.006252829215167803,0.0019265073996414888
0.08000462521575064,-0.006996571433962665,0.0013250138178558274
0.08941588421902172,-0.007674768553853923,0.0006709303755808036
0.09894153336369041,-0.008287076726308814,-2.7072213606009834e-05
0.10846542451336989,-0.00884151460407416,-0.0007602903267752159
0.11814833951227738,-0.009335421800643508,-0.0015281571035577113
0.12775325994824263,-0.009781693861382045,-0.0023251632562456114
0.13763481327690663,-0.010168421593476619,-0.0031583111537930313
0.14727067382994946,-0.010517578698319983,-0.0040208441636513685
0.15741839701745114,-0.010797776157274452,-0.004928544386353438
0.16694307513244627,-0.011052093204743919,-0.005867086506501354
0.17746002781155987,-0.011210259369694192,-0.006865637591501452
0.18655454509524907,-0.011362919157638998,-0.00789204701150362
0.19766214982270425,-0.011361150315759173,-0.008999453317098961
0.20570945839191243,-0.01139878669877229,-0.010119457088968936
0.21792694905260496,-0.011167202103476864,-0.011350584283461411
0.22373683633224134,-0.011079216923585928,-0.01255392351470851
0.23822182489765067,-0.010500872958117623,-0.013915608024069904
0.23951350756464168,-0.010300736301374656,-0.015161981983530045
0.258815478900523,-0.00918251085515607,-0.016648841665988658
0.25119802244740036,-0.008953179376037531,-0.017846427428726306
0.280676477800861,-0.006974620430156252,-0.019439065171670353
0.25553210669329895,-0.006967041448882076,-0.020411668961220458
0.30619612427606985,-0.003583804442387716,-0.0220825663115731
0.2467531493040894,-0.004406280812826607,-0.02250983185003288
0.34102477604364795,0.0013433902604237224,-0.024201532706309398
0.21478518339736818,-0.0016457239696529135,-0.02336361606710443
0.39722949484098685,0.00818195426243694,-0.024531384738464793
0.14110447916317753,0.00016971755121294074,-0.01988659693917371
0.4980199852926817,0.01689869787413297,-0.017050354822726994
0.0,0.0,0.0
0.0,0.0,0.0
-0.003272893095578125,0.0017995457166849283,0.0019323378053553919
0.0013301562763573015,0.0013349811568539151,0.00313064121859247
0.007081129439526157,0.0004798854858832774,0.003851723811603495
0.013720301492394987,-0.0005612250280925188,0.004244735712655423
0.021197319207810587,-0.0016899965135878832,0.004382690230219429
0.029411584488454125,-0.002836909059645087,0.0043083485015087625
0.03824518070992885,-0.003952709256011274,0.004055838179318638
0.047552388786970476,-0.00500649800983515,0.0036578533175932707
0.05722680756264783,-0.005980486667990101,0.003144458267246624
0.06713866377893005,-0.006869329675035004,0.0025429868448473515
0.07724996088704045,-0.007672238553693425,0.0018744866739862755
0.087449210574468,-0.008396627908980476,0.0011566635457387017
0.09779368014657497,-0.00904604683695104,0.00039918534092493984
0.10813995375647556,-0.00963318380630657,-0.0003885907515334588
0.11867691498190311,-0.010157247902764933,-0.0012071272912641835
0.12912498006775108,-0.01063525440973306,-0.0020511794588286454
0.1399015587020027,-0.011054650647112486,-0.00293018224238824
0.1504021575866915,-0.011442097030927193,-0.003837590801295345
0.16150842402260618,-0.011762200506856736,-0.004792976707245776
0.1719218641064517,-0.012065159369492585,-0.00578130169114231
0.18349657593972243,-0.012271333587493757,-0.006837431046672961
0.1934952916504217,-0.012484062039559141,-0.007926456684578942
0.20581186088549994,-0.012535443617255726,-0.009110364111293751
0.21474692918086696,-0.012643183023375776,-0.010314093523744983
0.22840750896803422,-0.012461810612540659,-0.01165035516183285
0.23500868220024676,-0.01244987879026092,-0.012966303087955428
0.25130348728034124,-0.011903134093672598,-0.014471360390532496
0.2531113864186532,-0.01177813154151854,-0.01586458586744325
0.2748201611732884,-0.010645197153770469,-0.01754083601346545
0.2670863615026601,-0.01048089135209582,-0.01891875399368037
0.29998387230609036,-0.00839516999200716,-0.020749529793640663
0.27337331630135814,-0.008435949750256584,-0.021922298665377597
0.3292087920092864,-0.004782080542966943,-0.023872140439245734
0.26555373250325287,-0.005648033972017825,-0.024479606272969363
0.36816252076877715,0.0006371448784395824,-0.02645602833248938
0.23239533182118263,-0.002460013942963611,-0.025667054958739485
0.429217972026374,0.008299128006162657,-0.026982582012000825
0.15347651400122456,-0.00011647817661688577,-0.021914135223795046
0.5370316133291193,0.01809589490937394,-0.018633476049839785
0.0,0.0,0.0
0.0,0.0,0.0
-0.006310709682834502,0.002516619341754087,0.0024692638684142803
-0.0020734442923392325,0.0019576149318827995,0.004003292658803892
0.0034896564820116765,0.0009183016015052309,0.0049198365788655
0.010021432468553967,-0.0003351122225305964,0.005405224684457925
0.0174631030543876,-0.0016749547371107962,0.005558039599560498
0.025716036391201715,-0.003013800627296426,0.005442913345310532
0.034672422718541616,-0.004293134680382593,0.005113424652904934
0.04418968334141408,-0.005479434185620194,0.004618636648878135
0.05416457232508827,-0.006556302911990012,0.004000933116071919
0.06445320027008979,-0.007522714445485496,0.0032962006214587404
0.0750128035334968,-0.008382803805538313,0.0025303726834774013
0.08570473350439095,-0.009149984148252478,0.001723814480470116
0.09658970634557483,-0.00983225117321735,0.000886478983006055
0.10748840012831766,-0.010447751749648626,2.756017692337608e-05
0.11861702477572406,-0.010997939061992316,-0.0008553923015456962
0.12964188746038074,-0.011504679078514359,-0.001758089118630228
0.14104822470139305,-0.011954766409328264,-0.002693261352166795
0.1521339628231067,-0.012380305444542807,-0.003654974154593359
0.16391922054649605,-0.012741423587500866,-0.004667465822573968
0.17491725525826204,-0.013096478034946674,-0.005715085686980927
0.18724986738642185,-0.013355353872237118,-0.006839563137101804
0.19781378089969628,-0.013635774922318818,-0.008002972589213243
0.2110147393882979,-0.01374873239848259,-0.00927801429589527
0.22044958182582017,-0.01393867966262186,-0.010582117180294757
0.23519957621527812,-0.013819370704039782,-0.012045373145342871
0.24213363433859902,-0.013900070401333014,-0.013499004796081583
0.2598524459656345,-0.013399145249969328,-0.015181175260190643
0.2616166937231094,-0.01336992624334721,-0.01675932798491296
0.28532228975681595,-0.012236771765614881,-0.01867636332952017
0.2767793815453454,-0.012161536419117523,-0.020290280402058235
0.31271588493071656,-0.009979957381994347,-0.022433278168137154
0.28381327711331567,-0.010096047552243533,-0.023880292874407644
0.3446364357581964,-0.006174710562264622,-0.026204534533986207
0.2758938385167983,-0.007114258281377173,-0.027072251927149533
0.3872059828204766,-0.00028258754217981254,-0.029430609759871364
0.24124206589735325,-0.003519112969504724,-0.02873101576547024
0.45379174843234327,0.008193704536981592,-0.03023815694667119
0.15877930476557658,-0.000625411209669627,-0.024631385096622948
0.5703160791655164,0.01900618624845226,-0.020815168615677896
0.0,0.0,0.0
0.0,0.0,0.0
-0.012053262676197711,0.0035701268937169623,0.003056959744666013
-0.009649968456167958,0.0028646049524946025,0.004942329390016042
-0.005323303176138127,0.0015388090460577723,0.006043933031157189
0.0005310722509359469,-3.8276086535754485e-05,0.006599602837330433
0.007832301722167777,-0.001687237036468334,0.006744001965845557
0.016393647103570236,-0.0032909609724678327,0.006569227206809124
0.025994242419954114,-0.004779102953302194,0.006150175624761395
0.036376406119955754,-0.006119201134083554,0.005552179598429759
0.04735165973884738,-0.007302689504755831,0.004829171841677471
0.058706028174977554,-0.008339570191329002,0.004024834240144352
0.0703671543728308,-0.009244297200501947,0.0031693590872922403
0.08216022130062708,-0.010040201176398002,0.0022853113240464316
0.09415589682744725,-0.010741989512003313,0.0013824586677721872
0.10614326881113463,-0.011374750658051692,0.000469477676032835
0.118380749531372,-0.011942599896529892,-0.00045854520247631776
0.13048192269588804,-0.012472830573434825,-0.0013985193929747814
0.1430182690444577,-0.01295124935624734,-0.002366971496086959
0.1551829614459027,-0.013416016669783154,-0.0033586129123654605
0.16816072510572017,-0.013822035586368445,-0.004402970654960127
0.18025620576806958,-0.014236976809152122,-0.0054835091907885734
0.19390173649336273,-0.01455895531460923,-0.006649820495185031
0.20558542371091082,-0.014922232980533919,-0.007860186696221001
0.22029935787621996,-0.015114339265921853,-0.009199853816136331
0.23085453480962786,-0.01541024744077787,-0.010577038506474994
0.24743835093247926,-0.01537847602423064,-0.012142661726079815
0.25541985384797194,-0.015585332323818809,-0.013708536987140725
0.2754794652559288,-0.01516328004355917,-0.015547954735036512
0.2780329121136726,-0.015272814221650019,-0.017289925268542585
0.3048887168549689,-0.014176107607502266,-0.019436949940243798
0.29647991642559846,-0.014237267511038777,-0.02127358946369704
0.336889188294923,-0.011987387726720611,-0.023733447429251993
0.3066321793946582,-0.012215423084059452,-0.02545417307314538
0.37410694476835504,-0.00801661049483872,-0.028181790641512668
0.3008169309449056,-0.009028029978833906,-0.029327470660002724
0.4224981099708866,-0.0015543441886656652,-0.03212860493767094
0.26552152884794455,-0.004867131386216085,-0.0315518179487654
0.4953292456831796,0.008044626379155076,-0.033324459831738415
0.17657272311830305,-0.0011330191711825895,-0.02720245504968742
0.619954328881473,0.020449862618022046,-0.022829605879193415
0.0,0.0,0.0
0.0,0.0,0.0
-0.01630584339289416,0.004653240662742118,0.003939708706027673
-0.014090641723757904,0.0037757246297573403,0.006364387021483525
-0.009748120401396774,0.002135645964311053,0.007745226201364067
-0.003862467436073031,0.00021565528920909,0.008387261999915106
0.0034605641014698167,-0.0017506326753938856,0.008483209758601569
0.01205136632237986,-0.0036193599530651497,0.008176404623684488
0.021729114284272787,-0.005312098731434723,0.007583288618422419
0.03226372852550777,-0.006799753724866957,0.0067993535902391425
0.04348550483119562,-0.008082348755632676,0.005897555924716634
0.05516764059972341,-0.009181107062879636,0.004931997531469852
0.06723313238133372,-0.010120895410696178,0.003936776257986204
0.07947068644767559,-0.010935460913220374,0.0029349572848522826
0.09195582049543635,-0.011646669800052436,0.0019339795407167884
0.10443025643488953,-0.012287345883557321,0.0009400764159713237
0.11718992225696773,-0.01286453071519633,-5.5870144424027925e-05
0.12977793683003333,-0.013411700100148147,-0.001053165990691749
0.14285671254087348,-0.013913456730799014,-0.0020733485750020334
0.1554922506320114,-0.014414896698998005,-0.0031123275414733365
0.16905195136358941,-0.014864914531095095,-0.004206011770768689
0.18159593200787474,-0.015341910528947685,-0.005337022060036568
0.19590618012458402,-0.01573062183107156,-0.00656432164020351
0.20799797294130257,-0.016184371254551598,-0.007841856269928796
0.22352559854910536,-0.016464171609576795,-0.009270102194419132
0.2343967928641689,-0.016880009725285663,-0.010746523901569686
0.2520480597796412,-0.016949460768214967,-0.012447970550002622
0.26013529279539893,-0.017303791830602742,-0.014163316780185998
0.2816842812497168,-0.016979147427893276,-0.016210515829490495
0.28388372923514493,-0.017257129912187773,-0.018172492502237642
0.31294564137598935,-0.016219198012286353,-0.02062838130836824
0.3032566429034294,-0.016456229978568087,-0.022773159302394944
0.3471594937350172,-0.014162287536168626,-0.025670401029468937
0.3138542693196926,-0.014554028646522157,-0.027787014815853515
0.3872196096395069,-0.010101154719682157,-0.031086316534925662
0.30761284495065216,-0.011251581399866796,-0.03265595723499149
0.43974644081086384,-0.0031550613641562423,-0.036089408514052124
0.2706201054501191,-0.006619260651634859,-0.03572799185540197
0.5194094361082189,0.007462069314582239,-0.03787577092524745
0.1785982099936885,-0.002068177345656114,-0.031052704314752363
0.6548473321316813,0.021214199228706883,-0.025991658120309832
0.0,0.0,0.0
0.0,0.0,0.0
-0.02594491152030259,0.006341053990976974,0.004874222739622975
-0.02699139535868229,0.005168052657900183,0.007829968373702976
-0.02469407224211326,0.0029928842702898048,0.009436517318346108
-0.019711348676904477,0.0005066602522179658,0.010100078600715979
-0.01227908967039069,-0.001954729959055319,0.010094972684998163
-0.002823555882796429,-0.004202707669732441,0.009624571394554249
0.008200908469298235,-0.0061546071073009245,0.008845992765493136
0.02033074181875097,-0.007799754514941811,0.007880412643519635
0.03324568985467557,-0.00916397292065556,0.006815342405458645
0.046618768645822116,-0.010294084584831713,0.005712060789018422
0.0603426578662601,-0.01123504155905448,0.004606458470443892
0.07417256870492672,-0.01203670290254061,0.00352075727964328
0.088211709632765,-0.012730580911834875,0.00245909646988383
0.10217213827833783,-0.013358313863340136,0.0014246153213587488
0.11641510658140455,-0.013929558977338118,0.00040340381567730824
0.13042136656834497,-0.014484024596637234,-0.0006064931687166582
0.1449727036841991,-0.01500412863181385,-0.0016320345685575674
0.1590014723425784,-0.015542392486674451,-0.0026701864173930443
0.17409562627658187,-0.0160404467450466,-0.0037637162781285955
0.18804437231086626,-0.016588991481734573,-0.004893780995413505
0.20404183908768675,-0.01705750540378043,-0.006129694457748312
0.217570774444329,-0.01762170152737824,-0.007419662700190379
0.23505947796904264,-0.01801272536752344,-0.008881648303172751
0.24739199012702418,-0.018581763524997477,-0.010399416083135384
0.2674582359098333,-0.018788997540742935,-0.01218071650662713
0.2769679721123243,-0.01934141798241718,-0.013985393832761421
0.30166234684407073,-0.019166206838775984,-0.016186425285303577
0.30505970079331063,-0.019683942574567223,-0.018308344197682264
0.33843152498260554,-0.01877068970418577,-0.021027505384461295
0.3292834736303257,-0.019272547671042684,-0.023425403195049512
0.37935568287332205,-0.01699905205266984,-0.026734764781341222
0.34496848924402995,-0.017639456280546247,-0.029207460782246106
0.42743028566749947,-0.012948859111722858,-0.033094589747332384
0.34300067005616086,-0.01426444961761996,-0.035081372334810006
0.4888676208585272,-0.005415054327209339,-0.03923133837603062
0.30680481225476147,-0.008928673395529326,-0.03912711339487506
0.5774046441341582,0.006756778245987234,-0.04178881645588999
0.2066016063738482,-0.0030134782952088816,-0.034348981014011445
0.7226494306510355,0.023032965638149216,-0.028604551225957293
0.0,0.0,0.0
0.0,0.0,0.0
-0.03144381845383951,0.007921942683356987,0.006411433971355044
-0.03193573402128919,0.006406006504602488,0.010262203928960996
-0.028936621403070677,0.003672106049452637,0.012242237415544595
-0.023505746944072883,0.0006318626318784885,0.012907123959602586
-0.01592333042607808,-0.0022865056006425234,0.012676184434688292
-0.006520859052199059,-0.004867679276162444,0.01187164006122029
0.004387843637977078,-0.007036953008591749,0.010733139645978737
0.016438465018071988,-0.008805889982972093,0.009430305786959092
0.029366654809311797,-0.010224843578116835,0.008073167697063477
0.042838759516015984,-0.011363802502469393,0.006729385750508148
0.05674220052526763,-0.012285918396998287,0.005432041126165053
0.07078372079475832,-0.013056499266560589,0.004197142020095717
0.08507301731410408,-0.013716454292364108,0.0030207719484804437
0.09926168240839968,-0.014316646071853054,0.001899314331377355
0.11376197588450904,-0.01486921338231916,0.000811331713484161
0.12796414241975138,-0.015420674780450151,-0.0002495922050243377
0.14277070829597005,-0.015950651596387515,-0.0013173185596403439
0.15694734665883017,-0.01652003557699636,-0.002390593538869584
0.17232316411629828,-0.0170619287854735,-0.003520183574853653
0.18636381229805768,-0.017681249451735406,-0.004685804750406402
0.20272686509745477,-0.01822982379450024,-0.005968772677879761
0.21626658877704247,-0.01890955562768535,-0.0073107847782739295
0.23429275961355153,-0.019417118635530216,-0.008850642852143369
0.24648459310654336,-0.020152113263616232,-0.010456162307931179
0.2673995180148132,-0.02050846712408086,-0.01237321698132775
0.276460659952203,-0.021282206042492192,-0.014327168451510238
0.3025400069779893,-0.02127491038314673,-0.01676116273599522
0.30485672474159414,-0.022070308854741004,-0.019128859053822257
0.340534053591996,-0.021308971389327903,-0.02223397628495684
0.3290704726295887,-0.02213533552578405,-0.02501677772503075
0.38309491501664705,-0.01992190380284816,-0.02893514506667494
0.34410815968609065,-0.02090489404361407,-0.0319652525787339
0.433590243809546,-0.016036429838137793,-0.03674120507562615
0.34052441815359674,-0.01766147220475217,-0.03941411091683367
0.4992783833791387,-0.008152259577829571,-0.04466548374486857
0.3018244463487577,-0.01189766461183217,-0.04503195920475212
0.596162342096895,0.00521571619442422,-0.04849783806670574
0.19980687267838457,-0.004793192196816756,-0.04014015768530825
0.7552250790074365,0.023298605032300468,-0.03355272613250625
0.0,0.0,0.0
0.0,0.0,0.0
-0.048284952210226766,0.010655370335644726,0.007983830198596092
-0.05481248937073972,0.008488190145585054,0.012634440404941572
-0.055129054736946764,0.004707185517263525,0.014813489951172433
-0.05056814850987521,0.0006689900917467007,0.015319024470892858
-0.04193291967062906,-0.0030125249846852517,0.014763728627900752
-0.030261706305251806,-0.006082159136090215,0.013592521892904667
-0.016490971567749278,-0.008505178601962284,0.012111024181558863
-0.0014217917384808192,-0.010360948190102174,0.01051867938989772
0.014452101731290861,-0.011763810725081396,0.008934573757039332
0.030686782969375662,-0.012833401316678202,0.007424792362634373
0.04716756646784264,-0.013665164171931305,0.006015373591619078
0.06359550348570797,-0.014345652981478567,0.004713887862898775
0.08014589973712344,-0.01492593287190815,0.0035071992526179156
0.09645483568322116,-0.015465139826948816,0.002384332107017015
0.11303479330558658,-0.015975728257273985,0.001316087595794851
0.12920673382768197,-0.016509818745713643,0.00029166630671082156
0.146036640841348,-0.017042163724217973,-0.0007295220827919981
0.1621213884802807,-0.017642173240207566,-0.0017474477551673129
0.17958478716011705,-0.018232460898624077,-0.0028206710190254013
0.1955380368615477,-0.018934245364597157,-0.003926389652227656
0.2141912054442016,-0.019579020540265595,-0.005158221463749016
0.22969021824944474,-0.020399917293318397,-0.006449316179088209
0.25039174035860284,-0.0210542913012807,-0.007961147144350278
0.2645965165490504,-0.022000224531755812,-0.009541370635545464
0.2888458621385611,-0.022555707906454045,-0.011479557786460063
0.2999206804292784,-0.023624512174629787,-0.013457467779861542
0.3304252902509428,-0.02386288629801969,-0.016002456231338853
0.33457148114662816,-0.02505061103197804,-0.01847755637659488
0.37644946220184694,-0.02455274361672975,-0.021846096810159917
0.3661653328370344,-0.025866431499917318,-0.024865762920338187
0.42923657113671193,-0.023846931964385466,-0.029289057429843935
0.3896657616674442,-0.025362112675259927,-0.03273423821327444
0.4925837571477473,-0.02040369740586539,-0.03835780777039324
0.39450411247205014,-0.0224600830756877,-0.04162163145536453
0.5731764047878738,-0.012140026110071799,-0.04807235778358265
0.3601393516633941,-0.015996047032100846,-0.048928594498155766
0.6845609214514911,0.0033283759130859156,-0.05346257416635929
0.24798762658964357,-0.006684078326948945,-0.04439158646208475
0.8569677819601783,0.02569522686679208,-0.03705154424695635
0.0,0.0,0.0
0.0,0.0,0.0
-0.054639695192316,0.012917646086316483,0.01087095980090657
-0.05838951121102542,0.010029575837631937,0.017025587154992805
-0.05618545440185589,0.005265889108755697,0.019587741715361043
-0.05028594036471267,0.0004021541500419158,0.01976740949946274
-0.04144617219430293,-0.003836875763212285,0.018549113760567105
-0.030280777497182,-0.007216906098735658,0.01663491089585835
-0.017287189345477582,-0.009765070659544711,0.01447104002787523
-0.002997710722235473,-0.011623175481031246,0.012313139144210101
0.012214188537679126,-0.01295510727844891,0.010287747348704244
0.02790112698113678,-0.013917569179337208,0.008446504877694421
0.04393322440902457,-0.014630373449873451,0.006794080484097229
0.059944364967233627,-0.015197488661564005,0.005317746959565462
0.07611501625444887,-0.015678228737129703,0.003986689725191084
0.09200567905694822,-0.016139464923378845,0.0027768557194745927
0.10819396331374881,-0.01659313569995206,0.0016476873729830413
0.12388645786198527,-0.01709712433817223,0.0005816423231113707
0.1403030831004162,-0.017620208895673492,-0.0004700517057749988
0.15582405798594956,-0.018241225402794888,-0.0015095551900309822
0.17288444572246262,-0.018870493416075326,-0.0026040412519784287
0.18816724316849634,-0.019647956716180384,-0.0037284948175972665
0.2064933900465559,-0.020381390675050175,-0.004990035134551849
0.22116432647646353,-0.021340497362782422,-0.006312862692286399
0.24172323139543483,-0.022136485275860145,-0.007884143423745292
0.2548251051101702,-0.023296906996710925,-0.009529374333526129
0.2792986860893008,-0.02404994652449094,-0.011589748303936878
0.28875385503449935,-0.02542897527751155,-0.013697333011975243
0.3201595370842519,-0.025917455624508316,-0.01648337069192437
0.32168900945388035,-0.027533761283099586,-0.019203983050928
0.36567960751573736,-0.027315442817238744,-0.023027816870004388
0.35089837522170475,-0.02919306526967828,-0.026489001383717424
0.4182859984375604,-0.027411163256439882,-0.03173313090615938
0.37085322926780345,-0.029615023266708822,-0.03592042324483599
0.4822366808153434,-0.024677849692372546,-0.042922908000630366
0.37068868118556064,-0.02746563877654141,-0.04726987788845836
0.5658554774297395,-0.01659090073266402,-0.05571241652873748
0.3310326992339197,-0.02101262141967797,-0.057552568839777565
0.6866858641141643,-5.009906301061307e-05,-0.06394522325667668
0.21937758622934725,-0.010163448011204472,-0.053705576616870816
0.8769049239409804,0.024605691258512894,-0.045580841545972514
0.0,0.0,0.0
0.0,0.0,0.0
-0.08626339093887218,0.01758269535450794,0.01371398459548595
-0.10144319866164601,0.013232407178223632,0.020972337831991334
-0.10415010365264303,0.006465172753207709,0.023424404199453394
-0.09788671773174158,-2.2372658485110645e-05,0.022940363500005292
-0.08519504805618593,-0.005255585574518824,0.02093613407117977
-0.068491842392981,-0.009066868951030257,0.018320402198411353
-0.049550325242943595,-0.01166118192301946,0.015609107720012899
-0.029596068947491484,-0.013352959927610703,0.013062268629323352
-0.009249403035395887,-0.014429300085062663,0.010785465561440473
0.01100795165259685,-0.01512117709419433,0.008803045235304294
0.031142521123731583,-0.015585096207439595,0.007093569490126114
0.05085942262747394,-0.015942076905251127,0.005622705179475021
0.07047295248408324,-0.016254167569026902,0.004342271797022434
0.08956188796252372,-0.016590094964667842,0.0032159034815040623
0.10885134709753637,-0.016955706266405628,0.002193042821512919
0.12747915073873492,-0.017411268469634613,0.001250622920832689
0.14688128363408845,-0.017916080512896983,0.00033343032276066917
0.16523307931247194,-0.018557912213647467,-0.0005615610029661685
0.18535270389221487,-0.019232120972575355,-0.00150823129303949
0.2034694612000053,-0.020099853267506924,-0.002477914295777149
0.22513312018698448,-0.020941700983231712,-0.003589378635939517
0.24271005252983874,-0.02207084597613469,-0.004755882895764527
0.2671567791018885,-0.023045757045360483,-0.006189171686445959
0.2832581386634874,-0.02447854815685586,-0.007688689540180616
0.3125892295915166,-0.025493531614859018,-0.00964905649517017
0.3250846753642061,-0.02728439803618194,-0.01164333860534769
0.3630114462391071,-0.028131309234553124,-0.014417449173406132
0.36741867020405283,-0.030350684843165946,-0.017097331097418927
0.42075166223866456,-0.03058672416007805,-0.021092143728946754
0.40815815762006463,-0.033311647322986276,-0.02465631090808837
0.4895872661909441,-0.03201829946673156,-0.030424775332878493
0.44234296935581435,-0.035312182981996544,-0.034972752425512406
0.5752152715781635,-0.0306494539555429,-0.04312229283165811
0.45844325344693077,-0.034571053964195325,-0.048201954538835384
0.6859329462980135,-0.023059066243341156,-0.05865833977717754
0.4314324111399017,-0.02809098859327112,-0.0613562229602653
0.8347107953927834,-0.004135535721654083,-0.07007845590660455
0.30880182040120474,-0.014049681507283179,-0.0590960846774775
1.0482592515479736,0.027969543122355195,-0.0505433865130268
0.0,0.0,0.0
0.0,0.0,0.0
-0.09219749043815482,0.021075889947286836,0.019528248439067017
-0.09808312542242928,0.015424644978827022,0.02916661739641887
-0.09386798680337649,0.007333560382068241,0.03156252220060963
-0.08491871334987083,8.700018204364234e-05,0.029808884511332966
-0.07278903239031642,-0.005393666901723109,0.026206806421415305
-0.05829758320606027,-0.009126174372286449,0.022134259232889118
-0.04203933678020103,-0.011470380832870764,0.018272942687502382
-0.024674784195905995,-0.012841754182776806,0.014886568215685935
-0.006651163352126626,-0.013586625573825785,0.012022940050983845
0.011510979990469322,-0.01396975490237546,0.009639566545563255
0.029722056347985474,-0.014163261364714947,0.0076588737315148765
0.04758622524773304,-0.014295706958632843,0.006005200382032369
0.06541099159819318,-0.01442759556567316,0.004601334353071116
0.08268082051421279,-0.01462777032367142,0.0033916266216326473
0.10019210361403269,-0.014894568091424625,0.0023118498225348214
0.11694157101051228,-0.015290355014025044,0.0013308226296581114
0.1345438029526608,-0.015763626945816372,0.00038588499820285584
0.1509028000205443,-0.016411818145396908,-0.0005283069815089421
0.16921274380081758,-0.017113262664798866,-0.0014923939000983032
0.18515704766302019,-0.018052833792144046,-0.002475421660909678
0.20505331709909724,-0.01897976523510966,-0.0036075499450174573
0.22016637152004523,-0.02025694396728869,-0.004792640754241602
0.24300093786207946,-0.0213809349329853,-0.006267345593830013
0.25613268512052806,-0.023062655558548428,-0.007806364780390493
0.28423008398202515,-0.024302415212057515,-0.009861410164789084
0.2928363475655196,-0.026485779196572485,-0.01194554610259254
0.3303317144928239,-0.027646527218866866,-0.014934559795871508
0.3291307335992408,-0.030467587297450208,-0.01781414621132244
0.38361404076757855,-0.031111673172664674,-0.022282704905831348
0.36220856556539555,-0.03473771442130161,-0.026275940834522008
0.44783874876253404,-0.033917104110840875,-0.033053201406492705
0.38606316025090864,-0.03850858983308648,-0.038479792632035395
0.5290940225686629,-0.034249724730212094,-0.04865894044943414
0.38849263840600795,-0.03988059336473678,-0.055339594646237035
0.637995037493072,-0.0283023665283288,-0.06937776933595491
0.34745664798516757,-0.03510988330764074,-0.07404772604237002
0.7946467464344567,-0.009826758088171583,-0.08720238548089419
0.22755844538732203,-0.020314792880435938,-0.07495932155921321
1.0301253242634436,0.02382124851966691,-0.06686653258589947
0.0,0.0,0.0
0.0,0.0,0.0
-0.15779676449342156,0.030418526781890925,0.024741872301133692
-0.18445790308124616,0.02206281105563098,0.03532288124743923
-0.18522181181239605,0.01097130931618457,0.036500382601078664
-0.17049318972924196,0.0019593892564348206,0.033026787977216324
-0.14716700499005814,-0.004027582173672794,0.027941960015787446
-0.12010858924369155,-0.007441805496269222,0.02281816055101047
-0.09204930210670165,-0.00908583988794764,0.018307832951155432
-0.06438383822067892,-0.009671864177217158,0.014583112332131044
-0.037545440760335676,-0.009696242041383954,0.011600651439065662
-0.011803082887366029,-0.009478894038599452,0.009245427623036
0.013073208672194695,-0.009196483278316295,0.007387824300239225
0.03690761076391159,-0.00896498031242295,0.00591690526636378
0.06024449215745863,-0.008824429742107846,0.004732819001908493
0.08264617491813803,-0.008829614617097392,0.0037658598964993802
0.10511264083344683,-0.008961153121132272,0.0029435880595748945
0.1265885333301624,-0.009277383278240675,0.0022304594817736684
0.14895707762032065,-0.009711143646941344,0.0015613793931648799
0.1698961609713102,-0.010368124617440687,0.0009310524690205662
0.19306824064998326,-0.01110658398568366,0.0002575436936046394
0.21361581416213601,-0.012137473628212391,-0.0004249845544564047
0.23876527844288317,-0.013174856015980469,-0.0012509049951554725
0.2586142359233918,-0.01463927359204071,-0.002115548616997122
0.2874889457570895,-0.015957521225641653,-0.0032699354708452984
0.30553035603662754,-0.017958738875811835,-0.004467175815069193
0.3410859501704009,-0.019500771800312924,-0.0062004360368011395
0.3547086510136289,-0.022205390496680282,-0.007927998598971541
0.40218609208601447,-0.02381614513717387,-0.01063472693876056
0.40583491462924604,-0.02747968599862296,-0.013169350269418189
0.4748164835879413,-0.028773730863233576,-0.017501878940604763
0.45739259960121603,-0.03374723812473121,-0.02123510152394455
0.5655700950587147,-0.03380659568740562,-0.028276398487842466
0.5051998752201666,-0.040463946196382085,-0.033706836389727504
0.684606337632577,-0.037164705141486155,-0.04509726614949719
0.5382182720696754,-0.04559853631438205,-0.05238539623037599
0.8458734623232094,-0.03420626040398575,-0.06945861084416778
0.5283191781713159,-0.04377231684956902,-0.07542728501567444
1.0648786020978014,-0.015148858564990616,-0.09344928510221515
0.40286890653893576,-0.026851251397638644,-0.08078523396888163
1.3581789610024613,0.02984869541897891,-0.07411721944048341
0.0,0.0,0.0
0.0,0.0,0.0
-0.15946391406369415,0.03815510010755832,0.03632169516665802
-0.15729704090883326,0.029400408768696002,0.04979980362925172
-0.14206824910247456,0.019015085382581846,0.04917442394733813
-0.12469663108187799,0.011549291253390999,0.042406718599406104
-0.10618548597591695,0.0072397625319507285,0.034225749484921957
-0.08651200018430026,0.005301334601497175,0.026771906603907374
-0.06593032186367438,0.004859625027064178,0.020694998147189964
-0.04504503516102449,0.005225407985312137,0.015976500556266433
-0.024242923563569208,0.0059446281782775156,0.012377101593292738
-0.003988430612626369,0.006735888484913002,0.00963610859990253
0.015783267030352235,0.007456848956206444,0.007529900496510184
0.03473259495764203,0.00801820708368491,0.005890399467841432
0.053357175688823845,0.008404849200299226,0.004584656376906437
0.07109729167215123,0.00857727026534505,0.0035232906953360805
0.08900089217720804,0.00857292260659144,0.002623172285966025
0.10584616754702669,0.008337396279455605,0.001841882192263261
0.12368066482037265,0.007953852524074547,0.0011113289938773372
0.13987443939774424,0.007307908176334897,0.00042372609014584465
