0.00478315705903248,-1.9663711420652692e-05,-0.0002686084887646191
0.004887993234480588,-7.166734791972706e-06,-0.00027685140866506023
0.004756360083650172,1.3816001382430492e-06,-0.0002744734138135065
0.004792613064546168,2.1817781046922394e-05,-0.0002746712551572998
0.004210812204966431,2.2825895320731598e-05,-0.0002506365054333463
0.00447980249219012,6.209256208350759e-05,-0.00025165184010055177
0.00286161199607116,3.0138502049705257e-05,-0.0001850579427039803
0.004414333116553312,0.00012666550617744572,-0.00021669914806016097
0.0,0.0,0.0
0.0,0.0,0.0
-0.00016013539181506512,1.3307553892449308e-05,7.577081186687866e-06
-0.0002807362254516921,1.2811843658372766e-05,1.3632349472520707e-05
-0.00039233081679381285,1.145601049458283e-05,1.904745080867918e-05
-0.0004913201022309958,9.591488889135125e-06,2.3753272233186163e-05
-0.0005739192007506015,7.322893026728823e-06,2.757249549590197e-05
-0.0006367606938557738,4.759956757000406e-06,3.035082760751655e-05
-0.0006769464813261865,2.0184660841772095e-06,3.197514940822901e-05
-0.0006920494426032491,-7.906280772092102e-07,3.237518191384998e-05
-0.0006800701772748426,-3.5732869458258242e-06,3.15195682524841e-05
-0.000639352557520782,-6.263573327730459e-06,2.9407664807865962e-05
-0.0005684674465373022,-8.832555461711704e-06,2.605780520310355e-05
-0.00046608188973923414,-1.129373989844141e-05,2.1493207033505478e-05
-0.00033083417922594074,-1.3704011915536094e-05,1.572699700873263e-05
-0.00016123694854050242,-1.6159332036720285e-05,8.748151170183195e-06
4.437518805158269e-05,-1.8784577322346255e-05,5.101604064336157e-07
0.00028782416727648086,-2.171794109493187e-05,-9.07532305043825e-06
0.000570985940690118,-2.5090438279076543e-05,-2.0138546791820883e-05
0.000895572363107745,-2.9003117878590068e-05,-3.28433129508034e-05
0.0012628606229960278,-3.35020201541957e-05,-4.737161950878743e-05
0.0016732731389029376,-3.8557414174094676e-05,-6.389776348836548e-05
0.0021260372389918978,-4.4042468001260266e-05,-8.256020276946755e-05
0.002618475148104474,-4.973230718828489e-05,-0.00010341839343728407
0.0031459028204024867,-5.529135216559549e-05,-0.00012642842541791456
0.0037002993881878592,-6.032234655242918e-05,-0.00015138166118501634
0.004271797026052284,-6.432569829701703e-05,-0.00017793459027193222
0.0048450656822081935,-6.687118025750208e-05,-0.00020548591128610023
0.005406912630992068,-6.735436923943805e-05,-0.0002334009055710102
0.005932201655542617,-6.559799072672935e-05,-0.0002605865969323403
0.006413978281714583,-6.075149187675363e-05,-0.0002863975917478772
0.006806159943121679,-5.357864190116713e-05,-0.00030895278005716614
0.0071392273217850315,-4.201810941726616e-05,-0.00032855403794414766
0.0072966703400289745,-2.9958808904465014e-05,-0.00034120208693093373
0.007451317395304396,-1.021169537169428e-05,-0.0003512415795070061
0.007228054036852359,2.6094173186289807e-06,-0.00034738752828115054
0.007302895849124159,3.49829904966749e-05,-0.0003482716773659663
0.006381631616137975,3.5280439082602086e-05,-0.00031715523140382325
0.006859985575749622,9.767902906952291e-05,-0.0003205091395226007
0.004324505897106541,4.574978064907939e-05,-0.0002355811271115187
0.0068323296853722145,0.00019750543117765605,-0.00027705198510952347
0.0,0.0,0.0
0.0,0.0,0.0
-0.00023160613278240452,1.993742144356779e-05,1.0294267486850386e-05
-0.0004035744869085953,1.9223818989691296e-05,1.8436518216650504e-05
-0.0005627837100687762,1.72223810679966e-05,2.5700670294620997e-05
-0.0007043074860485823,1.446753252327391e-05,3.2027220507987944e-05
-0.0008227972714486647,1.1108950484765165e-05,3.718717894948084e-05
-0.0009134043907669627,7.3010433692021784e-06,4.097377256856387e-05
-0.0009718391528912925,3.2061645984701728e-06,4.3229008166859776e-05
-0.0009943659878265594,-1.0203046476011444e-06,4.384601267619372e-05
-0.0009777480114612658,-5.246565156006372e-06,4.2764241243671353e-05
-0.0009191492068481891,-9.379652439324087e-06,3.9959745289986926e-05
-0.0008160083614400382,-1.3377364103483348e-05,3.543160285795849e-05
-0.0006659092516583561,-1.725525286526816e-05,2.918604878637454e-05
-0.0004664739460741236,-2.1087353197629892e-05,2.122010186702903e-05
-0.0002153066504059013,-2.4999770627290922e-05,1.150679592273075e-05
9.000052917744185e-05,-2.915628796818082e-05,-1.6141848513109178e-08
0.00045176747876235994,-3.373672686314881e-05,-1.345158328259529e-05
0.0008720398731332192,-3.8908630309682893e-05,-2.8941333781764082e-05
0.0013522640690423397,-4.479650397900304e-05,-4.665469901393471e-05
0.001892950792100774,-5.144757211637058e-05,-6.677060784138446e-05
0.0024931498906892815,-5.8804766534435957e-05,-8.944693942718686e-05
0.0031501626699423843,-6.66758181548001e-05,-0.00011479139127832466
0.0038586387120357864,-7.47353252260309e-05,-0.00014280899492533745
0.004610788632109081,-8.250024149003672e-05,-0.00017338329504709403
0.005394324529779619,-8.94117635502983e-05,-0.00020619051128812537
0.006195282781329959,-9.475447723998295e-05,-0.0002407651162666776
0.006991732456991462,-9.794690339837914e-05,-0.00027630071680256776
0.007766784683561122,-9.810956443094806e-05,-0.00031202338314065205
0.00848433410578826,-9.50825730720971e-05,-0.00034649232723417666
0.009139569321550555,-8.755608182485158e-05,-0.00037904856397498964
0.00966316619235454,-7.687840364612121e-05,-0.00040713134160347443
0.010111382864755759,-5.9726470389119044e-05,-0.00043159796375745474
0.010302233536125171,-4.239306924115752e-05,-0.0004467400274417796
0.010516035407413232,-1.3382045154479346e-05,-0.0004593809360680329
0.010166709036297733,4.335579082787483e-06,-0.00045320116786290226
0.010307507313767084,5.2047916101042734e-05,-0.00045532608956124865
0.008954334215942343,5.051852399728625e-05,-0.0004136939203329272
0.009738045533787371,0.0001427475049916541,-0.00042109509110262286
0.006054076621413017,6.452811944135554e-05,-0.0003090531525665871
0.0098070263046662,0.00028641598953447117,-0.00036594545764990425
0.0,0.0,0.0
0.0,0.0,0.0
-0.0003223906143375413,2.8855370728149786e-05,1.4055201943895823e-05
-0.0005578004065976227,2.786507232128982e-05,2.50546016515187e-05
-0.0007757879048973806,2.500884463160061e-05,3.4838646812867034e-05
-0.0009699061967763883,2.1074620869817325e-05,4.337224665141318e-05
-0.0011328941732331043,1.6269307189222034e-05,5.035839608932512e-05
-0.0012580406764385005,1.080179020290369e-05,5.55188928051332e-05
-0.0013392439925592455,4.890591067579585e-06,5.863355789342341e-05
-0.0013709951557200506,-1.2556247645090218e-06,5.954357760238544e-05
-0.0013483114025386797,-7.459865582685028e-06,5.814556582186334e-05
-0.001266635393259317,-1.3596567654791076e-05,5.437995772190043e-05
-0.0011217207165603333,-1.9606619189115974e-05,4.821532817706242e-05
-0.0009095368364949538,-2.5505594124515404e-05,3.963068270578359e-05
-0.0006262267665248396,-3.138359003676258e-05,2.8597923694323568e-05
-0.00026814994392393464,-3.7395871790620844e-05,1.506699661848482e-05
0.00016799315868985405,-4.3743234868471546e-05,-1.044579267688172e-06
0.0006849228584727523,-5.064341702001724e-05,-1.9854810486636907e-05
0.0012844712708350958,-5.829387752403692e-05,-4.151290264870879e-05
0.001967116319807857,-6.683279815739872e-05,-6.618344729849185e-05
0.002731600404109,-7.629480105974469e-05,-9.40259498552084e-05
0.0035743093351246714,-8.657893148686198e-05,-0.00012515826936823204
0.004489192003398957,-9.740551616507758e-05,-0.00015962915582281597
0.005466660179830439,-0.00010832553170969395,-0.00019735355573895116
0.006494488343667948,-0.00011867458638568839,-0.00023810754341231172
0.007554649607999898,-0.00012770634476660565,-0.00028140433625965854
0.00862843099644511,-0.00013443858619504077,-0.0003266217942018521
0.009685739283370479,-0.00013813265339739764,-0.0003726771328460153
0.010706781994638826,-0.00013754968951171015,-0.0004186419052582138
0.011641444126439006,-0.00013262730999440234,-0.00046259715591683145
0.012491634855132456,-0.00012139494020951452,-0.0005039418362273783
0.013155804417844166,-0.00010613255992347201,-0.0005391360159775375
0.013732061488058781,-8.16311348676288e-05,-0.0005699598300234854
0.013944246372424621,-5.77455967116167e-05,-0.0005881830031128243
0.014231326889976267,-1.6675847049136147e-05,-0.0006043785384654947
0.013707232693266394,6.661477886206919e-06,-0.0005948583420686602
0.01395658908932677,7.44763400913551e-05,-0.0005991076079503141
0.01204333956785062,6.935933930094677e-05,-0.0005431270006216965
0.013273482661136031,0.00020079490390308556,-0.000556920100942808
0.008123720502431554,8.731673356298789e-05,-0.00040815872575496024
0.013529649609985383,0.00039976522701620884,-0.00048643316957682256
0.0,0.0,0.0
0.0,0.0,0.0
-0.0004374782305705711,4.08112295428313e-05,1.9054954091998543e-05
-0.0007508907750375125,3.9467791848212875e-05,3.380547982245555e-05
-0.0010410559211154772,3.5478651969338334e-05,4.6877062201252956e-05
-0.00129979516993482,2.9981065955164053e-05,5.828418444136192e-05
-0.001517501904696737,2.3255036030438626e-05,6.76450190356203e-05
-0.0016851235160309404,1.5576156429590623e-05,7.458861358161833e-05
-0.0017942134891037788,7.230834745321963e-06,7.881276772430212e-05
-0.0018368975878610859,-1.5083151371737796e-06,8.008886425713523e-05
-0.0018058001064651373,-1.0410207377730238e-05,7.825443857470478e-05
-0.0016939568640428745,-1.93099137246682e-05,7.31993190576134e-05
-0.0014947431039131264,-2.8126661775646714e-05,6.484764118814254e-05
-0.001201859234125927,-3.687267757743142e-05,5.3138471396987585e-05
-0.0008094129833770312,-4.565105664811739e-05,3.800771758959879e-05
-0.0003121364558116013,-5.46422886468521e-05,1.9374337625147113e-05
0.00029429429962235667,-6.407810927973651e-05,-2.8679257203142884e-06
0.0010128085041589863,-7.420506580179804e-05,-2.884977394846173e-05
0.0018444666031002842,-8.523728685923845e-05,-5.871823727295764e-05
0.00278781124116292,-9.730957849247743e-05,-9.26148622699674e-05
0.0038384786663820235,-0.00011042243302441436,-0.0001306531658770051
0.004988478394095645,-0.0001244080274278706,-0.0001728749243901219
0.006226548150634218,-0.0001388711807423133,-0.00021922954744262174
0.007536810584977292,-0.00015321381598074722,-0.00026949332788287676
0.008900951422539669,-0.00016655115814306876,-0.0003232925983993638
0.010293322751300273,-0.00017792618877932013,-0.00037992086325729167
0.01168989729035528,-0.00018602749146785715,-0.00043857004339168824
0.013050418093652143,-0.00018996727625173777,-0.0004978017450729628
0.014353855685793882,-0.00018802989455355657,-0.000556543639036595
0.01553182920280366,-0.0001803828449554236,-0.0006122425636678232
0.01660021534564655,-0.0001640953155845912,-0.0006644945971959439
0.017412169781342877,-0.00014289676416300338,-0.0007083905863653335
0.018131382345952584,-0.0001087738334852343,-0.0007471738521376479
0.018346298442262737,-7.681206672563992e-05,-0.000769013827983874
0.018727267090930443,-2.0057811006382037e-05,-0.0007899424779267846
0.017963787713325872,9.604455605726769e-06,-0.0007758855709953477
0.018384191546152527,0.00010375541706442308,-0.000783597846020721
0.01574491134506872,9.245451975098641e-05,-0.0007089686378967912
0.017615099967109558,0.00027532572631516706,-0.0007323048956888001
0.010595118166945684,0.00011479397784879568,-0.0005361752179352845
0.01818518269766235,0.0005439028352336602,-0.000642370533137935
0.0,0.0,0.0
0.0,0.0,0.0
-0.0005820496236262961,5.666797678699966e-05,2.5522766397816697e-05
-0.000990254046072223,5.487355800776127e-05,4.505812323237228e-05
-0.001367913730678631,4.939045174541068e-05,6.229033737630726e-05
-0.0017048951390790873,4.183226191992579e-05,7.732276996002852e-05
-0.0019887265310273893,3.257275072066836e-05,8.96720388678285e-05
-0.0022074405319755823,2.196945281385515e-05,9.885051173619615e-05
-0.0023496108249674067,1.0390834313461644e-05,0.00010445126800153579
-0.0024042955681928225,-1.8139544820659976e-06,0.00010615525622454977
-0.0023609624652775867,-1.4349409952998432e-05,0.0001037220369849079
-0.00220943824081559,-2.7003363120998716e-05,9.697332148591196e-05
-0.001939919251047087,-3.966746398575597e-05,8.577259616779577e-05
-0.0015430963150153134,-5.2345514292145554e-05,7.000447511692303e-05
-0.0010104341219623312,-6.514772043751815e-05,4.955697273990349e-05
-0.00033465298218814755,-7.827151263988247e-05,2.4310399322704748e-05
0.000489668577649063,-9.196734592291188e-05,-5.866923367815642e-06
0.0014653429188168086,-0.00010649373115156655,-4.111181572896557e-05
0.002591896825958945,-0.00012205897275632268,-8.155318066982977e-05
0.003864689541764587,-0.00013876773925876863,-0.00012728214553311
0.005274582748511743,-0.00015655488252719297,-0.0001783288289727938
0.006807085412014229,-0.00017515534045463155,-0.00023460950527465964
0.008443467990420407,-0.00019402395634071502,-0.0002959212847770499
0.010159033185737828,-0.00021238862959397395,-0.0003618390743634321
0.011927479199775675,-0.00022910217999366083,-0.0004317905261421757
0.01371323671431526,-0.00024298385909747691,-0.0005047822632279928
0.015486693649973071,-0.00025231954912617127,-0.0005798002836121495
0.01719490867430562,-0.0002561063376614658,-0.0006549600474158212
0.018818642482674088,-0.00025199060647339766,-0.0007290929490259641
0.020265352497245856,-0.00024057835991328247,-0.0007988184512348106
0.021575878423376292,-0.00021754306445376405,-0.0008641620030402508
0.022539498092546857,-0.00018881187278308264,-0.0009183312657590748
0.02341935272922394,-0.0001422544668427206,-0.0009668035132873987
0.0236110044277159,-0.00010051419763126744,-0.0009927225182591469
0.024116097676347543,-2.354794004914713e-05,-0.00101985043287933
0.02303154143794959,1.300280397216471e-05,-0.0009998552487605736
0.02371132875351348,0.0001413531449878588,-0.0010129501319515435
0.020139922616674008,0.0001202460697366515,-0.000914874090438587
0.022904524786297807,0.0003698973372356936,-0.0009518995511515881
0.013520194745178708,0.0001474811607334057,-0.0006966471448858503
0.02395543524767011,0.0007252672191026265,-0.0008379352394269231
0.0,0.0,0.0
0.0,0.0,0.0
-0.0007610002063177625,7.739327635322773e-05,3.374066817050247e-05
-0.001282286252558357,7.50256869823703e-05,5.926479654304116e-05
-0.0017639510015149198,6.759201156298072e-05,8.165394897276734e-05
-0.0021937013237767213,5.734596102572044e-05,0.00010115709830933625
-0.002555601576930364,4.478110173999054e-05,0.00011717305108635923
-0.0028341016127512992,3.0355234039891762e-05,0.00012907133663903097
-0.0030140538734236967,1.4535567620088341e-05,0.0001363158557078844
-0.0030806337177042443,-2.237544497523831e-06,0.00013847549583668903
-0.0030192775467849592,-1.9592137591009866e-05,0.00013521247232548358
-0.0028157027014297014,-3.7259348076197595e-05,0.00012626269095816444
-0.002456053558043095,-5.509550025300924e-05,0.00011141280655639842
-0.0019272359561229367,-7.308829249503903e-05,9.047880031903878e-05
-0.001217474559460965,-9.134512445319383e-05,6.328974154495327e-05
-0.00031715874773428345,-0.00011006617872419824,2.9681428497911527e-05
0.0007801814059629081,-0.0001295003219333195,-1.050182702484393e-05
0.0020767296368268957,-0.00014989132615427222,-5.739155144325138e-05
0.0035694858813896226,-0.0001714076270275849,-0.00011107618652996909
0.005249094027317538,-0.0001940852462505,-0.00017156056119432684
0.007099681454435554,-0.0002177498229503844,-0.0002387446495832806
0.009097768901898675,-0.00024200052545790538,-0.00031235799653440304
0.011214593234395555,-0.00026610080527726427,-0.000391982520709824
0.013413658384696544,-0.00028908312647507286,-0.0004769161512243401
0.015658638778914827,-0.0003094944305755253,-0.0005663360726365691
0.017901276818543754,-0.00032593604253075754,-0.0006588844866152981
0.020106622619421907,-0.0003362053855261643,-0.0007533382016801832
0.02220580765640804,-0.0003392600563422402,-0.0008472613976410917
0.024186332905639665,-0.000331888424206744,-0.0009394888622144904
0.02592330305393307,-0.0003154520048837377,-0.001025568066403478
0.02749860668642354,-0.00028360825401153194,-0.0011063093565865513
0.028611702329263564,-0.00024553831353297015,-0.0011723578878823156
0.029672298615749364,-0.00018316519861367564,-0.001232487228034546
0.029804870838243087,-0.0001298588836943422,-0.0012629495394415164
0.03047619538927357,-2.7191147373259075e-05,-0.0012981881902488855
0.028969414867861084,1.6499120594211506e-05,-0.0012707152733875842
0.030028579444594417,0.00018867000267742232,-0.0012918648744363198
0.025276654505587207,0.0001528592786451081,-0.0011650758878532853
0.029259860410432013,0.0004879379531187816,-0.0012210424055125958
0.016928178037961504,0.00018555853666196153,-0.0008937690935849973
0.031005867971904553,0.00094995316655302,-0.0010777300681471995
0.0,0.0,0.0
0.0,0.0,0.0
-0.000979836779603027,0.00010411216677705122,4.4001782744132756e-05
-0.001633957938208189,0.0001010144353213875,7.688322838275236e-05
-0.0022371311223596687,9.105053420849952e-05,0.0001055357356045164
-0.0027746919388390236,7.732439790929954e-05,0.00013043425814691486
-0.0032265454403024077,6.0484183629322515e-05,0.00015084581851470486
-0.0035728095500481656,4.111199419617223e-05,0.00016596882588028485
-0.003793811347666319,1.979497342752133e-05,0.00017511141649608627
-0.003869983984532389,-2.917334210545077e-06,0.00017770752224365418
-0.003781832814459231,-2.656220625848275e-05,0.00017330236524100678
-0.003510063750460222,-5.080301713167647e-05,0.00016152908316610645
-0.0030359242790831396,-7.545134056116589e-05,0.0001420830064833388
-0.0023418259640861122,-0.0001004685642814615,0.00011469993400362334
-0.0014122620107133617,-0.00012594507817224103,7.91423928198089e-05
-0.00023511969736370942,-0.0001520630704410728,3.520016448699768e-05
0.001196887895714904,-0.0001790403211714287,-1.729993256130009e-05
0.0028845842254310774,-0.00020706809499453375,-7.846656377065369e-05
0.004821227453066276,-0.0002362279988452475,-0.00014831893239255331
0.0069909806547146245,-0.0002664362333454269,-0.0002267321586264494
0.00936910452731634,-0.0002973523659201852,-0.00031342262323199644
0.011920420071110228,-0.0003283932781836811,-0.00040786286644595317
0.014603459176862834,-0.00035858219739941304,-0.0005093510025577138
0.017366624840384967,-0.00038674228734945335,-0.0006168212869441798
0.020161620528548037,-0.00041107064130786096,-0.0007291502181355306
0.022924249192647878,-0.00042998613002147534,-0.0008445256913604259
0.025615318818915683,-0.00044069662033625635,-0.0009615355166032763
0.028145792367937125,-0.00044225716011107933,-0.001077064652083856
0.030517501141773908,-0.0004302974548442975,-0.0011901181663874388
0.032561820017106516,-0.000407398993215471,-0.001294854442809872
0.034424473694272005,-0.0003643330646781732,-0.0013933816706769274
0.03567943096078531,-0.0003149897669493221,-0.0014728908623976493
0.036946847859588364,-0.00023284629734746573,-0.0015468764459736523
0.036975822688629964,-0.0001662149415854837,-0.0015823026728133754
0.03787320739578115,-3.131475413832529e-05,-0.0016280502265476713
0.03582382816437406,1.9316631899299006e-05,-0.001591412917973897
0.037421370153660684,0.00024688379740375326,-0.001624144955486805
0.031196530301771906,0.0001900577422146839,-0.0014629971434526841
0.03679888005546428,0.0006327940367830591,-0.0015443828284700414
0.020845887002789398,0.00022905369736632786,-0.0011313099962553682
0.03950068777097122,0.0012240991851094024,-0.001365695940815057
0.0,0.0,0.0
0.0,0.0,0.0
-0.001242860125064971,0.00013802277221300048,5.669881396630836e-05
-0.002049455425505359,0.00013399997070230073,9.853739869354807e-05
-0.0027911754258744454,0.00012079177978543318,0.0001347112754744716
-0.0034508477747630167,0.00010261341251380445,0.0001660275347213197
-0.004003455159806654,8.031104358348709e-05,0.00019161000946721728
-0.004423948044741475,5.4620381655619925e-05,0.0002104575054596871
-0.0046872333566461396,2.6274229760849065e-05,0.00022169807582597038
-0.004768065674796883,-4.046588235768218e-06,0.0002246128168063839
-0.004641076113305104,-3.577056094827222e-05,0.00021861718261043532
-0.004281066426992056,-6.847868609778769e-05,0.00020323237553285044
-0.0036636180755641886,-0.00010192462513114644,0.00017805590433260632
-0.002766087832768065,-0.0001360288804930686,0.00014273965544909462
-0.0015689560193543279,-0.00017084486994710388,9.697933020423499e-05
-5.769376229748893e-05,-0.0002065084855069748,4.052406064281096e-05
0.001775299682967699,-0.00024316704136578498,-2.6804228201679575e-05
0.00392847741949552,-0.00028091033152708724,-0.00010506806025011687
0.0063899182450644675,-0.0003196732463196419,-0.00019418456420337174
0.009135355434100845,-0.00035918898433399304,-0.00029385210358244036
0.012129019672042277,-0.0003988806039912772,-0.00040354977255216515
0.015321259731623403,-0.0004379290055260084,-0.000522420731331352
0.018655376437577732,-0.00047505935508278924,-0.0006494145249979016
0.022061165324520654,-0.0005088824979537903,-0.0007830105155281229
0.025476735909178455,-0.0005371990180493945,-0.0009217464964118422
0.028818071327044555,-0.0005583215426762677,-0.0010632558253254334
0.03204396472606766,-0.0005687445727010913,-0.0012059943230072706
0.035039415562061145,-0.0005678429269741696,-0.0013460105942378416
0.03783153892637074,-0.0005496784664539338,-0.0014827361666173496
0.04019214372794185,-0.0005187156837986464,-0.0016085274197582982
0.04236214994135394,-0.0004616449336066643,-0.0017274994287501068
0.04374186886592886,-0.00039903306978030726,-0.0018222286024962317
0.045246736260081626,-0.00029257730460149477,-0.0019127810106514642
0.045114517603088045,-0.00021103224411230564,-0.001953801366740673
0.04631628823699527,-3.630329760119477e-05,-0.002013257624923239
0.043580855039029906,2.038865400042314e-05,-0.0019658610985150635
0.04591904488729233,0.00031691090177185565,-0.002014786554851898
0.037884105359557003,0.00023106362662722596,-0.001813413110175982
0.0455895011213882,0.000807219633770187,-0.001927868727572066
0.025259177001239,0.0002773463297489137,-0.0014143307881549889
0.04956284688420632,0.0015525832296579929,-0.0017064255674076054
0.0,0.0,0.0
0.0,0.0,0.0
-0.0015568204437586286,0.00018058957105537843,7.217151682679041e-05
-0.002536806483557575,0.0001753802778609153,0.0001247368164167145
-0.0034345539081369852,0.0001580167173569727,0.00016978043734874448
-0.0042301871541221,0.00013415668666341848,0.00020858511799894643
-0.004892874414316897,0.00010490663579984793,0.00024012723373902485
-0.005391521587512713,7.119930086983594e-05,0.00026317713248389605
-0.005694770224899109,3.395022679497878e-05,0.00027665800343064877
-0.005770891342338967,-5.998213103007666e-06,0.0002796816612318598
-0.005587896872514551,-4.7942619741985496e-05,0.00027152491400606575
-0.005114044098550095,-9.136425991023396e-05,0.0002515943298114642
-0.004318775914074054,-0.00013594401984201227,0.0002193918273839528
-0.00317416925164933,-0.00018154509570823398,0.00017449209200067978
-0.001656763018665931,-0.00022816063306605963,0.00011653476905115477
0.0002499489724194744,-0.0002758465975212372,4.524458259859905e-05
0.002553070352620668,-0.00032463242591898616,-3.95396230102787e-05
0.0052474128521058675,-0.0003744484368743124,-0.0001378033926492733
0.008314310445502834,-0.00042501207669587285,-0.00024932540013695705
0.011719085684666722,-0.00047580151027182954,-0.00037357878829199825
0.015413016392253192,-0.0005259211004563251,-0.0005097568500677186
0.019329445752675346,-0.0005742581767419801,-0.0006566043728329887
0.02339450643866084,-0.0006191721675948818,-0.0008126698744616337
0.027515963802979857,-0.0006590744794308398,-0.0009758853153216394
0.0316175116469675,-0.0006913162071850751,-0.0011444312468235792
0.035590780117759076,-0.000714234231488147,-0.0013152698702276033
0.03939644264710803,-0.0007234516971502133,-0.001486825697472953
0.0428856174622697,-0.0007189992893854956,-0.0016541055160988478
0.04612601775785051,-0.0006928146192873183,-0.00181732851535628
0.0488080781045928,-0.0006521624520570411,-0.00196650485946125
0.051309966498451355,-0.0005780346137681906,-0.00210870100602621
0.05279429332318456,-0.0005002712228091716,-0.0022203934959044934
0.054581715556748456,-0.0003644195341686599,-0.002330574015154264
0.05422448931877475,-0.0002666907655529954,-0.0023778298286692592
0.05583843929740045,-4.337776495310204e-05,-0.0024548657927173337
0.052255089666168784,1.7761999903398823e-05,-0.0023951048681087315
0.05558772877721793,0.00039905475435507225,-0.002465886110565706
0.045360887056506594,0.0002746106087246,-0.0022183831067504596
0.055736548880854074,0.0010138476204497255,-0.002374800564494645
0.030186061292908545,0.0003299776886649975,-0.0017459248971186678
0.06133796736616547,0.0019409183725748957,-0.0021022617551142127
0.0,0.0,0.0
0.0,0.0,0.0
-0.001924316143455402,0.00023319903324015646,9.103257760718772e-05
-0.0030958609953885617,0.00022648178327019664,0.00015646910663854352
-0.004164141141923946,0.00020386900810978538,0.00021196669112979644
-0.005106592343494787,0.00017285805967351794,0.0002594605571224535
-0.005885657644147455,0.00013489100743808543,0.00029778084750886873
-0.006463244075730937,9.114988833236469e-05,0.0003254461445065628
-0.006800782957043547,4.277866217469032e-05,0.00034116308284222593
-0.006859183270451253,-9.179650462515401e-06,0.00034387758308298714
-0.0065990939376330115,-6.38578435465049e-05,0.00033274244184235005
-0.0059817013883790284,-0.00012061171265136893,0.00030707110780249324
-0.004970079894372944,-0.00017902679555261715,0.00026629480621741735
-0.003531169924505621,-0.00023888586930461369,0.00020993768025316846
-0.0016380880140325885,-0.0003000923146731208,0.00013761031244599584
0.0007267329329385058,-0.00036258282623386466,4.904170856981824e-05
0.003568675068263716,-0.000426214988165196,-5.5883043949586585e-05
0.00687730228680894,-0.0004906961128137056,-0.00017703811013411046
0.010625511545066735,-0.0005554486879890923,-0.0003140306935074398
0.01476624434428059,-0.0006196205293230138,-0.00046606734302404664
0.01923631477713073,-0.0006819063379414361,-0.0006320247661918845
0.02394993571046429,-0.0007408422337483359,-0.0008101965971817685
0.028815063012580633,-0.0007943405558618929,-0.000998708355471855
0.033714191609840606,-0.0008406441724527853,-0.0011948638262073658
0.03855690379571052,-0.0008765839213788858,-0.0013965079966592351
0.043204912813773505,-0.0009007163578319636,-0.0015998043957700064
0.04762663357830205,-0.0009075806305720621,-0.001803313744720542
0.0516281440540749,-0.0008983461063799064,-0.0020007388100575017
0.055338251402541595,-0.0008620782701564504,-0.0021935841121710304
0.058336175184436345,-0.0008100883864105096,-0.002368807338365991
0.06119240531590021,-0.0007155341105881021,-0.0025376496400951144
0.062748451197844,-0.0006209057754211358,-0.0026686111088268342
0.0648702263072703,-0.00045001443200972486,-0.0028025113407797336
0.06420659781990809,-0.00033532264304755773,-0.0028573329149121462
0.06636331486324248,-5.3583927181357493e-05,-0.002957171497923481
0.061742769404796796,9.326917175396839e-06,-0.002884034857264315
0.06637320421396534,0.0004932001675182413,-0.0029837684078733227
0.05352922039822511,0.00031861093656677215,-0.002684480805803223
0.06722940907177816,0.0012538541072349056,-0.0028926978534131583
0.03555443970069356,0.0003851323697446153,-0.00213299162629362
0.07487346728381644,0.0023913066598803905,-0.0025582405366961166
0.0,0.0,0.0
0.0,0.0,0.0
-0.0023566295182880226,0.00029787634699399656,0.00011362736075363618
-0.003741493977937045,0.00028919096472028775,0.0001942126499105598
-0.004996713192332824,0.00025988753845012036,0.0002617789319517799
-0.006096792320170302,0.00021981582371921016,0.0003191506469132829
-0.006996327771262089,0.00017087316185858734,0.00036502996595460504
-0.007649337106294796,0.00011457946212440926,0.00039766267207325687
-0.008009418913813609,5.2381504327084406e-05,0.0004155266601768263
-0.00802976539054967,-1.441880690872846e-05,0.0004174066824144373
-0.007663567145777422,-8.47490132964327e-05,0.0004023515075695929
-0.006865116775655707,-0.0001578117975193625,0.0003696133118785956
-0.005591592051386678,-0.00023307733937640148,0.00031859243812194305
-0.003805615506878867,-0.0003102294792577834,0.0002488074457889505
-0.0014780023019963283,-0.0003890565025143531,0.0001598858274822398
0.0014084518657498468,-0.0004693398718099826,5.1607228791660316e-05
0.0048558584687281225,-0.000550712196034978,-7.605503415066045e-05
0.00884675058365726,-0.000632596084660638,-0.00022282142116183213
0.01334402001947868,-0.0007140413670978575,-0.0003880964579788751
0.01828653598308661,-0.0007937957087443458,-0.00057078531733335
0.023595963296217482,-0.0008700505553430936,-0.0007694387980185904
0.029166067053080072,-0.0009409420396079606,-0.0009818650473256204
0.0348872167516868,-0.001003839742738279,-0.0012057824940046873
0.040614009209287844,-0.0010568745195227937,-0.00143779571433651
0.04624418513187774,-0.0010962572351931913,-0.0016754811921784888
0.05160297972701876,-0.0011210404434084708,-0.0019140478970367876
0.056675321271850265,-0.0011243866436654953,-0.00215242838225011
0.06120705450907165,-0.0011092700843607951,-0.0023826643680773508
0.065415191999762,-0.0010608837486533085,-0.002608188920231644
0.0687277982362062,-0.000996228147358991,-0.0028119856899121495
0.07197829614006117,-0.0008778391451188925,-0.0030110093928584236
0.0735801726733758,-0.0007651322504115966,-0.00316346481408231
0.07611863328555081,-0.0005531425896904984,-0.003325525427779444
0.07507056479171781,-0.00042134850631065165,-0.003389207597011415
0.07794619015720818,-7.008897099113946e-05,-0.003517735874324187
0.07208761631102312,-8.900673960471852e-06,-0.003430294242009894
0.07838051393496238,0.0005979431690055052,-0.0035671080052053087
0.0624533596458755,0.00036046146849140264,-0.0032108156671042613
0.08020927340531958,0.0015288555536294242,-0.003481753497539476
0.041422121809172756,0.0004422484222510247,-0.0025765303789600006
0.0903285745487944,0.002909347163256567,-0.0030736391989415308
0.0,0.0,0.0
0.0,0.0,0.0
-0.0028515143752161965,0.0003760477874094106,0.00014109682657486794
-0.00446343598862902,0.0003648507716531524,0.00023986247309271374
-0.005914520148375897,0.0003271979094557353,0.00032160484127930286
-0.007176703795624331,0.0002758767488446371,0.0003903100872419731
-0.008195761228219625,0.00021337326558814275,0.0004445794132998133
-0.008916825380627985,0.00014164322339669359,0.0004823850734553354
-0.009284770843299657,6.252241005980063e-05,0.0005020042322471217
-0.009244416832637615,-2.235471903139236e-05,0.0005021195332432357
-0.008741197846952284,-0.00011165107641709553,0.0004817546173876641
-0.007722684226710313,-0.00020437062287686873,0.0004401875135568665
-0.00614085374350582,-0.0002998324908802364,0.0003768737430073767
-0.003955277839431723,-0.00039759230885986146,0.00029140665243136227
-0.0011361671758270831,-0.0004972923743729652,0.00018350035615286232
0.0023312759880170274,-0.0005985235607554778,5.304518804868408e-05
0.006443868280663884,-0.0007006435589888409,-9.98528875753095e-05
0.011174981516907332,-0.0008027375227209391,-0.00027472330570509806
0.016475947011424078,-0.0009034126514939293,-0.0004707544123299612
0.022269999481087762,-0.0010009630285990234,-0.0006865373111320697
0.028463770508101345,-0.0010929863275364775,-0.0009203291264580254
0.03492993137460908,-0.001177186284194806,-0.0011694550945315224
0.041543597942343795,-0.0012502716731415892,-0.0014313084911361643
0.04812920245920447,-0.0013103433833314049,-0.0017017543149537005
0.054577093652998454,-0.0013528366975425305,-0.001978249681258788
0.0606676043653565,-0.0013776641298535383,-0.002254880055788027
0.06641405802985718,-0.001376197794858088,-0.0025312968458305217
0.07148095485309765,-0.0013541071525544363,-0.0027974286695829336
0.07620802723605842,-0.001291400418009615,-0.0030594757892512658
0.0798192865383635,-0.0012129089692534726,-0.0032952847525701072
0.08349982110862868,-0.001067014405407176,-0.003529423319578719
0.08510112224290683,-0.0009354206237408324,-0.0037069737231246983
0.08814112663034432,-0.0006757593155194409,-0.003903607771608675
0.0866020942446579,-0.0005275291684016739,-0.003979097399894239
0.09039030275479297,-9.468586008865197e-05,-0.004144470262237632
0.08305668696112656,-4.014844970730736e-05,-0.004043331100252382
0.09142145721379634,0.0007116681243683225,-0.0042272811351110945
0.07190634390436564,0.00039636958795395645,-0.0038096544324351593
0.09452954796126616,0.0018372913886170533,-0.004154723015440526
0.047619150231368854,0.0004975611523537093,-0.0030883492590927687
0.10762106482706131,0.0034922709045146164,-0.0036567235350679628
0.0,0.0,0.0
0.0,0.0,0.0
-0.003433801050026194,0.0004709501487712319,0.00017362588403436194
-0.005299227437440746,0.00045639466052898583,0.0002935472793606619
-0.006963977945224328,0.00040804931867404755,0.00039141724009225323
-0.008396949372737241,0.00034244609545533954,0.0004727600348375083
-0.00953370526712181,0.00026290220427562693,0.0005361405081977434
-0.010309839978023387,0.00017199889512159442,0.0005792600548896622
-0.010661601055708748,7.211552737963414e-05,0.0006002121240025372
-0.010526190331631442,-3.4668288626910404e-05,0.0005976224646551751
-0.009842560071785208,-0.0001466808156412192,0.0005705595845346996
-0.008553238532238161,-0.00026269242501551147,0.0005184151968305502
-0.006606986766991627,-0.00038185793977200423,0.00044079699133900646
-0.003962614455076262,-0.0005036026077629046,0.0003374728766117435
-0.0005921374545239791,-0.0006274177305258538,0.00020833587005423252
0.003514342297295645,-0.0007526929231462696,5.3469278045149756e-05
0.008346248579387611,-0.0008784805646081392,-0.0001268292920908331
0.013865794852894745,-0.0010034975730627122,-0.00033185212098228674
0.020011778964762347,-0.0011258554449694253,-0.0005605641400685737
0.026690838906131144,-0.0012433706157761555,-0.0008112388895080492
0.03379609096181089,-0.0013529686628383608,-0.001081905110635823
0.041179583702017096,-0.0014519218481463315,-0.0013694303839627033
0.04870614934989742,-0.0015361395313923663,-0.0016710241853821596
0.05616870787880719,-0.0016038163466540092,-0.0019817800593813347
0.06345823820436026,-0.0016493837217199142,-0.0022992574932516907
0.07030019774912329,-0.0016740883045137569,-0.002616193603846136
0.0767530742672907,-0.0016669361270274755,-0.00293340091793366
0.08237238502034523,-0.0016374495645900733,-0.0032380790420827445
0.08766472958876986,-0.0015587409021654826,-0.0035402190477367926
0.09158203641158552,-0.001466175549706975,-0.003811051046645178
0.09577062614791934,-0.0012895297600649495,-0.004085039655173832
0.09735445001034337,-0.0011393144865153148,-0.004290782957142184
0.10103927907439993,-0.0008252694391614986,-0.0045282944674905875
0.09892887542451541,-0.0006622044508573456,-0.004618027403229159
0.10389347777331771,-0.00013434710636946865,-0.004828532324592376
0.09485459521976933,-9.187130019241319e-05,-0.004714135568170795
0.10577166101944978,0.0008301056899789884,-0.00495590873221375
0.0821307852189145,0.0004221077169702434,-0.004473474985475272
0.11049184559720686,0.0021801725976285475,-0.004905059088857335
0.05434841556398495,0.0005514785408683283,-0.0036641206186212253
0.1270274441884586,0.004149038506729952,-0.004301068962101098
0.0,0.0,0.0
0.0,0.0,0.0
-0.004086875035328481,0.000583561494128309,0.00021363875664363882
-0.00621112647601672,0.0005647275903638793,0.0003593932865255154
-0.008089433008643216,0.0005031973870173596,0.0004765048572689849
-0.009688883738875448,0.0004200953798805738,0.0005724356299622898
-0.010934023081887689,0.00031980318553784405,0.0006457914914850861
-0.011749930858690421,0.0002057063207987806,0.0006940658113990195
-0.012063332369509775,8.088412114447086e-05,0.0007152953513520444
-0.011803284453846284,-5.200703200583328e-05,0.0007082314240428827
-0.010902339264840468,-0.00019085799137553896,0.0006721945308420202
-0.009298845557205357,-0.0003341328303531324,0.0006068944056780385
-0.0069399867461506165,-0.0004807744166654145,0.0005122729248991633
-0.003786233829590262,-0.0006300530486722922,0.00038842538252500356
0.00018574956647249936,-0.0007812956291719748,0.0002355398402338491
0.004977849036802519,-0.0009336884437383009,5.397780609590731e-05
0.010569540716563009,-0.0010859647714065658,-0.00015572922078273504
0.016909478244769932,-0.001236472301678142,-0.0003926154724399832
0.023923019788041584,-0.0013827994920605816,-0.0006554574184054725
0.031499145636038305,-0.001522304223579649,-0.0009422474896714126
0.03951977662434368,-0.0016511782130513692,-0.001250919058568152
0.04781697884432301,-0.001766305896623973,-0.001577958598123206
0.056252349226661724,-0.0018626220478620888,-0.0019206369656905784
0.06458566531786776,-0.0019385774648197776,-0.0022732884961176275
0.07271976710655914,-0.0019872511743760863,-0.002633935152043245
0.0803118784622159,-0.002011808387992892,-0.0029937265255234632
0.08748707898729072,-0.0019980843642865417,-0.0033552598422950026
0.09365480577061838,-0.0019609258795148196,-0.003702259904547696
0.0995427446635546,-0.0018643739498576592,-0.004049809159862025
0.103744002744253,-0.0017577292161845843,-0.004360730623332702
0.10849905735510887,-0.001546748925562132,-0.004682107598300774
0.11000462514116796,-0.0013786719584189305,-0.004922099742314621
0.11445692257131287,-0.001003009005295832,-0.005210517579608632
0.11163749652126759,-0.000827757014534944,-0.005320468968153008
0.11803298004024734,-0.00019083321151789666,-0.005588418489230226
0.10699998353108837,-0.00016776980751979158,-0.005464522127932373
0.12097251004225772,0.0009500881416339943,-0.005777814461495928
0.09263377216209827,0.00043173906231492177,-0.005228825985319684
0.12767281023334687,0.002551490658298477,-0.005759355956116597
0.06122812993254121,0.0005965175033668765,-0.004327665157149971
0.1482169678495507,0.00486726240702997,-0.005025092810238643
0.0,0.0,0.0
0.0,0.0,0.0
-0.004871380590601244,0.0007200313023233258,0.0002605861159586092
-0.007298008748884364,0.0006953082485942033,0.00043610633237253993
-0.009418585122885575,0.0006166130130930015,0.0005748303999447485
-0.011197217730458555,0.0005110000690695901,0.0006867579311144147
-0.012545725476729818,0.00038442648155471206,0.0007706937164105428
-0.013378812249436746,0.00024148937696583922,0.0008239789232724762
-0.013615488718051355,8.627997745564097e-05,0.0008446627981871355
-0.013179705110929177,-7.776878243721387e-05,0.0008317276902523267
-0.012001351229045547,-0.00024801730950702077,0.0007848828032323341
-0.010018614679895132,-0.00042261346337416257,0.0007043128996117171
-0.0071810390038413545,-0.0006003263894815442,0.0005904561854586559
-0.0034546016584973316,-0.0007803351437483467,0.0004438928749236091
0.0011759603853719596,-0.0009618648161196837,0.0002652405943227256
0.006701381236791315,-0.0011439615852822656,5.524974621351488e-05
0.013089250157769568,-0.0013250735702283367,-0.00018525365189136123
0.020273043894730662,-0.0015032256521033795,-0.00045500848461216926
0.028165137303189553,-0.0016754875248618341,-0.0007526403031444458
0.03663672091615835,-0.0018388325085256488,-0.0010758924688701447
0.04556278191456509,-0.0019886802329536473,-0.0014227639679614988
0.05475694987939728,-0.0021216403916061825,-0.0017894352373462772
0.06408811664598107,-0.0022314702737424733,-0.0021735441456905633
0.07328192660737012,-0.002317115446563258,-0.0025686533879903228
0.08226991198845288,-0.002369822890267592,-0.0029736963656282955
0.0906254538621297,-0.0023954139353390457,-0.0033778861043358573
0.09856967772035757,-0.002375470912492755,-0.0037863501004151067
0.10531983883432898,-0.0023319993909077363,-0.004178338097409774
0.1118927237389735,-0.0022172136027067972,-0.004575546483239299
0.11641575736833411,-0.0020984729207665694,-0.004930176746299478
0.12188265742401296,-0.0018509024679631701,-0.0053050905444402
0.12332443141620346,-0.001667718432859815,-0.005583472700465288
0.12877679997132657,-0.001223646177453989,-0.005931130186420629
0.12518662812923895,-0.001040089250991318,-0.006065156068351816
0.1333845978564494,-0.00027846091056526307,-0.006401313593088884
0.12011711536944983,-0.00028163758866735526,-0.006270286908344748
0.13774122367944547,0.001062526479111855,-0.006668356527105541
0.10411015782086923,0.00041885842077374845,-0.006052020074677913
0.14680549978597382,0.002953386329952992,-0.006695228174060815
0.06882362119559869,0.0006364189216622016,-0.005061248345207735
0.17182610349109786,0.005667711709563686,-0.005810018151682612
0.0,0.0,0.0
0.0,0.0,0.0
-0.0057294238963832575,0.0008793542027203315,0.0003199530563302152
-0.00844612454573482,0.0008472104725896199,0.0005331430484783126
-0.010792816116475274,0.0007476612118709256,0.000698612188436885
-0.012733993522099193,0.0006149048247741046,0.0008294704006697658
-0.014168584488812839,0.0004568657893392069,0.0009249054519631944
-0.01499980018985102,0.0002796546873303181,0.0009823365660614196
-0.015137403935438058,8.863106834478041e-05,0.0010001896855807136
-0.014498982350466684,-0.00011178648317855025,0.000978125528137608
-0.013011354351868664,-0.00031827195275308825,0.0009166945107150831
-0.010613350148571482,-0.0005285585909632052,0.0008169566616861366
-0.007258793197603579,-0.0007411936105568461,0.0006801621083164788
-0.0029221875253246364,-0.0009552678713710144,0.0005076059281185314
0.002400248144451064,-0.0011699380875006605,0.00030047750717789176
0.008684349163979773,-0.001384182152964458,5.9995503223061465e-05
0.01588330854827062,-0.001596222633663274,-0.00021272042896744008
0.023913010882106105,-0.001803858779822875,-0.0005161427089347448
0.032673090436370074,-0.0020036835266161557,-0.0008488683451128356
0.04201583722706373,-0.002192428163987468,-0.0012084891344270254
0.05181372639349114,-0.002364721509280572,-0.001593331188964808
0.06186192500684816,-0.002517086799103777,-0.0019994026120574077
0.0720486279288536,-0.0026418411893117787,-0.002425158126108715
0.08206191593250504,-0.0027387307307224543,-0.0028634256738601874
0.09188261099524808,-0.0027964852772772667,-0.0033147128739116445
0.10097863660443177,-0.0028244631844068454,-0.0037659400939598804
0.10970314083410475,-0.0027985382003261347,-0.004225805141668172
0.11702140581252783,-0.002750122741446684,-0.0046679441005820724
0.12432047972227331,-0.0026162155059296236,-0.005122596427684589
0.12913061560522035,-0.0024872715801198546,-0.005528783062045822
0.13538615480936847,-0.0022000505924738684,-0.005968838631708198
0.13667442629649013,-0.0020047027367004373,-0.006295794222723276
0.14327380472907286,-0.0014847045059827569,-0.006718212249578982
0.13872421476826435,-0.001297917044886053,-0.0068874890809491615
0.14901732504516008,-0.00039605901758308384,-0.007310370901252704
0.13316003383615826,-0.00043536875701364214,-0.007181462645149479
0.15500515957705022,0.0011636196316656224,-0.007683289814730953
0.11544983406578345,0.000374769436840202,-0.007001864315342988
0.16684453519431613,0.0033721127078463723,-0.00777151353007373
0.07625227363445085,0.0006558261432136538,-0.005916192949841436
0.19698327913862082,0.0065173777827539445,-0.006699269442991146
0.0,0.0,0.0
0.0,0.0,0.0
-0.006810678872151744,0.0010747456822179722,0.0003887745041730296
-0.00990747341336378,0.0010320100364867623,0.0006446936954759705
-0.012542467934876792,0.0009044410681350639,0.0008396013700930737
-0.014677420662405523,0.0007357882312901097,0.0009907074807146252
-0.016196291165811033,0.0005370575551261162,0.0010979331200591399
-0.016993103376016016,0.00031674162552494493,0.0011589401958030077
-0.016974143763541033,8.20659046479578e-05,0.001172679795468903
-0.016058392144080676,-0.0001612632526181109,0.0011396648956532624
-0.014177820962337268,-0.0004091850166973482,0.001061486859582984
-0.011279556424585042,-0.0006591446676774539,0.0009402969351447107
-0.007328019739053499,-0.0009096759701179144,0.0007783684745868563
-0.0023113786049837794,-0.0011600186886131679,0.0005779073182413194
0.0037590807881503546,-0.0014094743287283464,0.00034082656147594226
0.010841457911313843,-0.001657158795921341,6.892984432571795e-05
0.01887399286558331,-0.0019012112831455954,-0.00023633357669566418
0.027754524685651476,-0.002139373320863791,-0.0005731534647423096
0.03737293397864618,-0.002367833983892192,-0.0009401981234177846
0.04756304583053839,-0.0025832956570612476,-0.0013349573578734493
0.058202112555752146,-0.0027795943246316655,-0.0017563399216487564
0.06906724217561835,-0.0029534681639039376,-0.0022002454791022245
0.08008235750855092,-0.003095494515582054,-0.0026664203415652545
0.09089432011074958,-0.0032066713939098127,-0.0031468835869183096
0.10156205163944189,-0.0032723390050875835,-0.003644456074905821
0.11142346040816696,-0.0033065073416349003,-0.004143200596787695
0.12101247826544717,-0.0032774772419516714,-0.0046565636523789745
0.12897189000725934,-0.0032287908167832435,-0.005151052108352516
0.13715983877411914,-0.003078056344133533,-0.005667635197233028
0.1423538240080912,-0.002944711719335317,-0.006129044292789518
0.14964782032327986,-0.002617921230503321,-0.006641280342544395
0.15086266965560838,-0.0024170773470229747,-0.007021421749628385
0.15897072962473743,-0.001815357510757676,-0.007528404840321059
0.15345690687725452,-0.001632211402522555,-0.007737802295097248
0.1663584793341871,-0.00057257745777142,-0.008260254580308492
0.14769629658974562,-0.0006553795823980909,-0.00813779906920368
0.17448825119147127,0.001235353230423614,-0.008759428218447562
0.12836973078892855,0.0002893219980168217,-0.008015411233827405
0.18953561437129862,0.003814887246998751,-0.008927737943766091
0.08490492257018822,0.00066679753346592,-0.006841913622908118
0.2252132493877291,0.007467820109033147,-0.007644803246098148
0.0,0.0,0.0
0.0,0.0,0.0
-0.007945481545157286,0.0012988023467337814,0.0004797653934437599
-0.011366666143673066,0.0012429835923172751,0.0007927806730667927
-0.014238443633642574,0.0010820815995227038,0.0010262541319493207
-0.016528201206372876,0.0008711029605826606,0.001202322111942262
-0.018106170685493146,0.0006247525379919692,0.0013220876499207624
-0.018854889987000027,0.00035435273439615456,0.0013841340609127189
-0.01867273343515706,6.935114189257697e-05,0.0013888755270720168
-0.017475385128840636,-0.0002229782316883933,0.001338696505454306
-0.01519655563042123,-0.0005176381014729173,0.0012371487828568548
-0.011790437646876286,-0.0008116752128896812,0.0010881923627037505
-0.007232758701964621,-0.0011035816250509647,0.0008956065345189517
-0.0015279215651970437,-0.0013928083874506997,0.0006627895360260852
0.005294646603883069,-0.0016789144033560115,0.00039248552702475276
0.013171397912441336,-0.0019613413997594314,8.70889181358551e-05
0.022023698023695356,-0.0022383053450171467,-0.000251737156156898
0.031728766132667945,-0.0025077230331007083,-0.0006220285638834116
0.04216842911083705,-0.002765487453819513,-0.0010227871752630097
0.053155587533867024,-0.0030085702920692827,-0.0014515665339078366
0.06457829109738579,-0.0032300103099375385,-0.0019082734648621085
0.07619121037561914,-0.003427168110989495,-0.0023888413182701932
0.08797016705829845,-0.00358848061343489,-0.0028949886201742243
0.09951048271037123,-0.003716767721175341,-0.003417912277726828
0.11098129628921985,-0.003792804267262722,-0.0039638094644296185
0.12155550961499766,-0.003836571881262677,-0.004513343641153999
0.13200481610759418,-0.003806392698820756,-0.005086364885684952
0.14056002240740584,-0.0037611940781209995,-0.005640636010033745
0.14966763167942432,-0.0035942131658638294,-0.006230675871491321
0.15516596068719754,-0.00346091175990255,-0.006759486366434058
0.16356083584129766,-0.0030924398628725046,-0.007361663580222693
0.16454016851006234,-0.0028918065200330065,-0.007811818386229648
0.17428313661009362,-0.0022011110428589702,-0.00842748360270042
0.16751563836623254,-0.0020297163001666324,-0.008696936700392694
0.18330491295035886,-0.000796275411021283,-0.00934767586573432
0.1613739717569833,-0.000935755420410467,-0.009250362316494603
0.19370849167196322,0.001276416116143054,-0.01002012014281013
0.1403246722082717,0.00015031806858632367,-0.009221896756146118
0.21240555324965046,0.0042531238117482035,-0.010294286350255984
0.09272451555879367,0.0006368719843222302,-0.007951051702268445
0.2543998609631834,0.0084391199380407,-0.00874675163901186
0.0,0.0,0.0
0.0,0.0,0.0
-0.009498649302523355,0.0015816730383634361,0.0005830805102968607
-0.013445404430606012,0.001506239203357479,0.0009589724047845143
-0.016697499469957897,0.0012982086749070026,0.0012332197951064057
-0.01921967611190945,0.0010286100400525376,0.0014346268575033893
