0.001055175806369579,-9.178370133939944e-05,-2.5814541144999146e-05
0.0019607033417265965,-0.00010653652982878466,-6.163611497006178e-05
0.00299388607150173,-0.00012160672657892876,-0.00010261442029782475
0.00414575724320171,-0.00013681079692508217,-0.00014865403849705756
0.005402804289621783,-0.00015185797249311434,-0.0001995490675200915
0.006746572238131811,-0.00016635411639586442,-0.0002549474341668587
0.008154928370979333,-0.00017976233434568743,-0.0003143584193096686
0.009600966884693038,-0.00019147386193967561,-0.00037708530680148253
0.011057377444633695,-0.00020068720248802527,-0.00044231517241462054
0.012490662332822665,-0.00020669227761907217,-0.0005089176067403385
0.013875106127068156,-0.00020840074302974098,-0.0005758130062022676
0.015168125340585047,-0.00020538210503985514,-0.0006412655254310827
0.016359203940878954,-0.00019603969764258718,-0.0007042388964990606
0.01737794686651605,-0.00018128986727032576,-0.0007618920778921604
0.01826912282974889,-0.0001577821037053662,-0.0008143517962912235
0.01886562871556414,-0.00013082915725807462,-0.0008559922567506546
0.019399342895370906,-9.039105456495396e-05,-0.0008916658811188598
0.019374871884409877,-5.5626933137413014e-05,-0.0009072631971350269
0.0196347267429216,6.899709993902115e-06,-0.000923240257398292
0.018610569290176834,3.431690504573248e-05,-0.0008987395740776291
0.019072871921803347,0.00013620470449862172,-0.0009023679413915164
0.0160914517924612,0.00011406872771233315,-0.0008112977396432712
0.018314682583904705,0.00031271766403184,-0.0008364466809366238
0.01071721801753051,0.00012636904677659904,-0.0006112125754189669
0.019170265297153613,0.0005887673701858196,-0.0007292727562775395
0.0,0.0,0.0
0.0,0.0,0.0
-0.0005926323733617991,6.177776323907611e-05,2.7093362828006114e-05
-0.0009925699843299292,6.0079886940940145e-05,4.756679823655075e-05
-0.0013602577531331233,5.439042264477298e-05,6.55367107419158e-05
-0.0016851553930970406,4.643727172902222e-05,8.120957337062129e-05
-0.001953290140277734,3.649799728608595e-05,9.406702184734143e-05
-0.0021504836026969604,2.4800815130247737e-05,0.0001035281930547464
-0.002262373523609961,1.157632270975677e-05,0.00010905097905368296
-0.002274452755858471,-2.9543618367719453e-06,0.00011014491316678116
-0.0021722114034365796,-1.8595414956703155e-05,0.00010637023811729422
-0.0019414179602951416,-3.518767187337182e-05,9.733452221815195e-05
-0.0015685619208294773,-5.261272176141745e-05,8.268973135749335e-05
-0.0010414751058281304,-7.078884790592634e-05,6.213209215181692e-05
-0.00035009660967819074,-8.965791249383417e-05,3.540577799727011e-05
0.0005126206388920774,-0.00010916544303947077,2.3127186271130626e-06
0.0015497855158613891,-0.00012923389286461783,-3.7273339483484544e-05
0.002759593332049573,-0.00014973652710308566,-8.33853282839733e-05
0.0041346654781461035,-0.00017046559693782595,-0.00013594356585289562
0.005661347084906094,-0.00019111482224214377,-0.00019472601788970517
0.007319951813355101,-0.00021124501899011947,-0.00025935836424816115
0.009084207284132347,-0.00023030320824885694,-0.0003292720765873693
0.010923417481737537,-0.00024756427528480686,-0.00040373632536204007
0.012800571595175139,-0.00026225283856897265,-0.00048176710351044075
0.014679465837432926,-0.00027333968675028375,-0.0005622914789200799
0.016515181847015854,-0.00027999454384951104,-0.0006438425202870236
0.018276572262145574,-0.00028080668032252795,-0.0007251514098067868
0.01990687533263645,-0.00027541375688380223,-0.0008040517443379615
0.02140065355660814,-0.0002615951444452699,-0.0008795525864268305
0.022660320742098297,-0.00024098609570617047,-0.0009480351635950741
0.023765026170708067,-0.00020860970538652426,-0.0010103439370728199
0.024472996553941435,-0.0001725561321264134,-0.0010589432878301615
0.025138627733172377,-0.00011783870715782826,-0.001101391023794393
0.025040513242894014,-7.262894626807027e-05,-0.0011183062269435277
0.025409708730716928,1.1896951472346043e-05,-0.0011385661248176702
0.023997412843372097,4.5432996915327946e-05,-0.001106589370256815
0.02473935249898547,0.00018397081407052428,-0.0011150248786676313
0.020720416161164625,0.0001488523805595199,-0.0010010969369905571
0.02393084310720609,0.000418991775413002,-0.001039949689036402
0.013777459973915473,0.000163286193976131,-0.0007601909657810209
0.02531177036724872,0.0007843536328880466,-0.0009093644429856198
0.0,0.0,0.0
0.0,0.0,0.0
-0.0007635748192336663,8.29024408658542e-05,3.4638986584358754e-05
-0.0012658838906252675,8.065566181167849e-05,6.047005440905338e-05
-0.0017259796348098625,7.29886186843236e-05,8.297070202912259e-05
-0.002130774198526111,6.227233854558098e-05,0.00010252141332205153
-0.002462276950185341,4.8870377599344016e-05,0.0001184937403297911
-0.0027021331029557422,3.306981691445965e-05,0.00013015520336756505
-0.0028316714162169338,1.515851153650374e-05,0.0001368140180778431
-0.0028319896249981353,-4.586361523179828e-06,0.00013783873572763446
-0.002684196053175673,-2.5915354613469897e-05,0.00013265886238664654
-0.0023698496072399734,-4.861787474713398e-05,0.00012076319813722326
-0.0018716165934568394,-7.252392053575935e-05,0.00010169976015639557
-0.0011741607444483953,-9.749605124870719e-05,7.508018215669798e-05
-0.0002651957673749596,-0.00012341064304951583,4.058904659545096e-05
0.0008632995112051134,-0.00015013247387610934,-1.9989762614758225e-06
0.0022139032803250415,-0.0001774819067106513,-5.279832131093285e-05
0.0037825069244246143,-0.00020520693159069628,-0.00011178268364425936
0.0055575930054468405,-0.00023294762592616252,-0.0001787628030555342
0.007519369130781809,-0.00026022586088962824,-0.0002533497210310763
0.009640414047459344,-0.00028640437722071065,-0.00033495409608809033
0.01188483555385214,-0.0003107325304613423,-0.0004227333961170489
0.01421179257597807,-0.00033225794861725465,-0.0005156608464551586
0.016572185278709354,-0.0003500297631050215,-0.0006123937665384711
0.018919933141106852,-0.0003627635514417157,-0.0007115509147784217
0.021196490105122333,-0.00036955334064321253,-0.0008112438874032655
0.023366266851580924,-0.0003686113116891097,-0.0009100092814782317
0.025354948998003366,-0.00035978482458480347,-0.0010051272000189087
0.027168101397596178,-0.000340024852571017,-0.0010957593886041638
0.028672044408310463,-0.00031208306663191255,-0.001177241499675772
0.029998359011137468,-0.0002686921846820751,-0.0012515231266407682
0.030803008223526433,-0.00022187809081718955,-0.0013084437740502634
0.03161309482795209,-0.0001497558253252863,-0.001359387721679005
0.031400500901517005,-9.280339559939637e-05,-0.0013777849782720514
0.0319207205731384,1.8614515221881677e-05,-0.0014039523094405355
0.030025105816815934,5.784834983276297e-05,-0.0013626604525957269
0.031168264553701645,0.0002415987553985021,-0.0013782568440491368
0.02589079155987184,0.0001882535146101196,-0.0012360060341629997
0.030396780678860667,0.0005463839361406964,-0.001293443921847092
0.017186159097723277,0.00020465331384679004,-0.000946228671785218
0.032509401065355145,0.001017030501688243,-0.0011334915405335406
0.0,0.0,0.0
0.0,0.0,0.0
-0.0009645412594913539,0.00010927447630924969,4.398879415263706e-05
-0.0015809640137488493,0.00010633456108552735,7.635589851121848e-05
-0.0021429173960649576,9.615076325005062e-05,0.00010430968754638505
-0.0026344722971853654,8.192409226107413e-05,0.00012848202733716592
-0.003032887078571483,6.412774469740586e-05,0.0001481199808416326
-0.003314892145227988,4.312068681596523e-05,0.00016230898605380518
-0.0034567862767766336,1.925981893171157e-05,0.00017017809361640388
-0.0034345943827631745,-7.109519565759781e-06,0.00017092959905181646
-0.003224445967076895,-3.567095061190604e-05,0.00016384192684589497
-0.0028032214026505143,-6.614676985862328e-05,0.00014827011196115504
-0.0021494730987030516,-9.829573114625791e-05,0.00012364897804635118
-0.001244638059648492,-0.00013189955331129283,8.950271062884838e-05
-7.441532241447808e-05,-0.0001667370631203321,4.5460256486557804e-05
0.0013696781109832498,-0.00020255280656294577,-8.719439406568503e-06
0.0030888903329604634,-0.00023901760327605043,-7.312003706918232e-05
0.0050757108475260665,-0.00027570102392133957,-0.000147628556143239
0.007313175486282676,-0.0003120326663322373,-0.00023191202129282468
0.009773796437113055,-0.00034730616878899593,-0.0003253714723254836
0.012420864832750879,-0.00038062877309211565,-0.0004271568435561757
0.015207074643483549,-0.00041101006566348735,-0.0005360952968579572
0.01808006477956135,-0.0004372247825633151,-0.0006508152406397546
0.020976655438173432,-0.00045814307227400454,-0.0007695459316212882
0.02384030827386937,-0.0004721900017159057,-0.0008905629277473532
0.026596265094517988,-0.00047845312564031184,-0.001011466851303641
0.02920633963537152,-0.00047469023273410916,-0.0011306209731378482
0.03157396448132036,-0.0004611641042607303,-0.0012446058422373588
0.03372400110633087,-0.0004337097102253336,-0.0013529044679843228
0.03547407188595758,-0.0003967500479446459,-0.0014494676895040652
0.037032674304509995,-0.0003398122513649103,-0.0015378782179589572
0.03791593996147638,-0.0002804208102869038,-0.0016044459868312017
0.03889021108089854,-0.00018718018740586349,-0.001665812316772801
0.038514587915472,-0.00011719339164055718,-0.0016858620475637398
0.039244315796194904,2.701975014048807e-05,-0.001720005110109291
0.0367514603949494,7.11133472582165e-05,-0.0016675669647794294
0.038452838518820656,0.000310469505073505,-0.0016933902815586023
0.03165319811363983,0.0002323130816142333,-0.0015173415219352994
0.03783292879902221,0.0006982433454592472,-0.0015990475586140107
0.020976058084119675,0.00025065797487036255,-0.0011713750296081875
0.04092517084808775,0.0012926875875358078,-0.0014030548103688102
0.0,0.0,0.0
0.0,0.0,0.0
-0.0011985147107858697,0.00014187443195297095,5.5387454269850655e-05
-0.0019400191544664542,0.00013805631635874569,9.559472801593247e-05
-0.0026120758233090092,0.00012468689485169257,0.0001299863182151379
-0.003195635361953388,0.0001060270753062182,0.00015954558630052604
-0.003662389561810933,8.269087330327103e-05,0.00018338450089600542
-0.003983352039862209,5.512725593290957e-05,0.00020037648930193764
-0.004129040595186532,2.3779070276723772e-05,0.00020944423017270163
-0.004069746237253895,-1.0922517808435022e-05,0.0002096033865817008
-0.003776097116954099,-4.857482015146224e-05,0.00019996818869034142
-0.0032199655951519585,-8.88107960648964e-05,0.0001797539226421422
-0.0023757014538069465,-0.000131291290201717,0.00014828308756671864
-0.0012217125110348481,-0.0001756847394910555,0.00010500018416256556
0.00025781822005908287,-0.00022163276179110351,4.949282662753897e-05
0.0020710260943898008,-0.00026871274288228504,-1.8474693227563657e-05
0.004216769195987824,-0.00031639101115453646,-9.89286686330391e-05
0.006682830600032423,-0.00036399892161039936,-0.00019163643620667933
0.009445399517482871,-0.0004106905716567468,-0.0002960852326954218
0.012467717471072084,-0.0004554707410826263,-0.00041142346153799484
0.01570240297893691,-0.000497128291448647,-0.0005365005503197508
0.019089111596026914,-0.000534391049593991,-0.0006697633471495585
0.022563045771916472,-0.0005657087373136234,-0.0008094609959635883
0.026045098002053967,-0.0005897776299941113,-0.00095333226332508
0.029468392269846783,-0.0006046846745991175,-0.001099296874252824
0.03273894551673712,-0.0006096115965426819,-0.0012443511559735343
0.035819006331795404,-0.0006017505275429521,-0.001386742838506295
0.03858323775773443,-0.0005820685146673732,-0.0015221752369138654
0.041087068627559425,-0.0005448869182962008,-0.0016506973192483647
0.04308193494215385,-0.0004970569220634017,-0.0017644412303138588
0.044885642667171606,-0.00042367068668150475,-0.001869319265556501
0.04582462195945292,-0.00034981206302738937,-0.0019469710815439682
0.046990484248542685,-0.00023117212985192468,-0.00202108344446859
0.04639395926032841,-0.00014699572831957454,-0.002043124870451534
0.04741020030017435,3.6906824684528995e-05,-0.002087953801226471
0.044186506036795574,8.443891148653284e-05,-0.002022686158021956
0.04664133958339212,0.0003915812495715967,-0.0020626497647794418
0.03801556976516363,0.00028057011129873125,-0.0018473973416917452
0.04631833189412005,0.000877229556768919,-0.0019598359399114946
0.02515051960195862,0.0003009962554126461,-0.001438569495777863
0.05068162525444169,0.0016159565937749266,-0.001720004510918146
0.0,0.0,0.0
0.0,0.0,0.0
-0.001469479927866644,0.00018181645183975372,6.906226617206309e-05
-0.0023466886993951243,0.00017687490591719823,0.0001185125916590978
-0.003136064020111012,0.00015948030726102444,0.000160358162041659
-0.003815111622025514,0.0001352381587590042,0.00019606457233779218
-0.004349037005827455,0.00010494846449749754,0.0002246054530193256
-0.004702311542364148,6.917931544669995e-05,0.00024461365664131264
-0.004838989501908504,2.8486626664942724e-05,0.00025478007349934596
-0.0047231269572280835,-1.658554126000572e-05,0.0002539173197850877
-0.004319571526233997,-6.552037642876314e-05,0.00024096881585231327
-0.00359517135081459,-0.00011783182372231466,0.00021501304907556103
-0.002520345794958468,-0.00017304941620970048,0.00017527189457227
-0.0010710575821779545,-0.00023068975864585974,0.00012112997246955071
0.0007691499185496622,-0.0002902118882539111,5.2159923054880916e-05
0.0030069108605595978,-0.0003509742598482022,-3.1836378519308594e-05
0.005637379318882076,-0.0004121793225022143,-0.00013079276352080237
0.008642172998364403,-0.0004728575906798217,-0.0002443182780694278
0.011989258291169109,-0.0005318197286674678,-0.00037168389063987173
0.015631158280881605,-0.00058772156385598,-0.0005117454021254883
0.019508820532846975,-0.0006389687809905546,-0.0006630220408636184
0.02354761060122641,-0.0006839706783457876,-0.0008235401870928399
0.027670160793271645,-0.0007207939096911134,-0.0009911559055411218
0.031779929018875636,-0.0007479791949632014,-0.0011630643374282055
0.03580094496008035,-0.0007632091706218843,-0.0013368458389227042
0.039616554827121155,-0.0007658993695482052,-0.0015087914132952862
0.043194164963382846,-0.0007525146149154817,-0.0016771344168324727
0.046370814959580536,-0.0007251188306279606,-0.001836476452295091
0.049247537821303256,-0.0006759759961912797,-0.0019877651167961945
0.051485827859173244,-0.0006153720933259614,-0.002120756692178743
0.05355471425526799,-0.000522342393395525,-0.0022445854660785346
0.05452600977086276,-0.0004321847173102082,-0.002334802503371782
0.055925225924809197,-0.0002833343726106515,-0.002424336432711713
0.05504494833621004,-0.0001840629438778733,-0.0024488072564045945
0.05645005018821248,4.745384606659739e-05,-0.002507637023251905
0.05234542111255085,9.63788185705644e-05,-0.0024279880973096146
0.055791417405752684,0.0004853844041479756,-0.00248685248067586
0.0449972169302799,0.0003321313907699378,-0.0022271960488929416
0.05594046019055361,0.0010856283636997554,-0.0023776369735288403
0.029724684504458993,0.00035535026209521076,-0.0017498613914646109
0.06189912733139227,0.0019913278680146343,-0.0020851770750883783
0.0,0.0,0.0
0.0,0.0,0.0
-0.0017787383859889378,0.00023014968936843568,8.541075379549625e-05
-0.0027993337968443745,0.0002237774069139985,0.00014573379266707092
-0.003709945235224405,0.00020134757695187405,0.00019617387005950362
-0.004484427444615469,0.00017014859988096146,0.000238839920072114
-0.005080567346045085,0.00013122411817289347,0.0002725710402855955
-0.005455471130788359,8.530010168691032e-05,0.00029573522443550283
-0.005566087091696262,3.308258648241148e-05,0.00030677482129497935
-0.005369834571196912,-2.4733740999216707e-05,0.0003042967443294514
-0.004825676784773385,-8.747902705628112e-05,0.0002870844506989238
-0.003895681380936057,-0.00015450764018378046,0.0002541019389263031
-0.0025469418699914275,-0.00022517428108912205,0.00020450154384949487
-0.0007539443234254523,-0.00029879662261609674,0.00013764585748900126
0.0014991412316815523,-0.00037459902967081364,5.3134126496316687e-05
0.004215931091981353,-0.0004516653613879918,-4.9150138476960606e-05
0.007386305409163879,-0.0005288728686714195,-0.00016900654072836985
0.010984115527698162,-0.0006048900439072592,-0.0003058451456961927
0.014967811432696015,-0.0006781177386635043,-0.00045868940293173667
0.01927793653460812,-0.0007468089898780435,-0.0006260714444984801
0.023843279294999225,-0.0008089232363656549,-0.0008061692697853589
0.02857410025556361,-0.0008625251343500825,-0.00099656612817976
0.033381305556527886,-0.0009052331672698,-0.0011947433473640074
0.038149760221243834,-0.000935467885557264,-0.0013973159430543172
0.04279706378976638,-0.0009504121169596456,-0.0016015847651743276
0.047179780388516494,-0.0009499005381513193,-0.0018030290731883053
0.05127730839460279,-0.0009294359677186535,-0.0020000282948576015
0.05487707804442464,-0.0008926995208661438,-0.002185801238983742
0.058145320307279785,-0.0008291675605961579,-0.002362633414455462
0.06062193574738609,-0.0007538773544893346,-0.002517197272607937
0.0629804269540053,-0.000637716940051281,-0.0026629613167570418
0.0639553286704594,-0.0005295625387524501,-0.0027676450019826207
0.0656408238505559,-0.000345177561013516,-0.0028760448545542164
0.06440354028383344,-0.0002302949969911629,-0.0029038845780884827
0.06632266379588356,5.771837828097783e-05,-0.00298100856618666
0.061167005627327554,0.00010516294000235564,-0.00288589504858434
0.06588362547496758,0.0005918054688216917,-0.002969430551729807
0.05254385463354308,0.0003854155627342143,-0.002660526493921201
0.06671293480032078,0.0013245514536601596,-0.002856800242442194
0.03465981325693504,0.00041251071594370866,-0.0021095596595658325
0.07463140913743888,0.002420972119888088,-0.0025009601409642867
0.0,0.0,0.0
0.0,0.0,0.0
-0.0021322185947705696,0.00028828143228215033,0.00010470557410436678
-0.003304272843657622,0.00028006375410165687,0.00017764076200381808
-0.004339350777088857,0.0002513225336589915,0.0002378369652755188
-0.005207351784996455,0.00021144952901994976,0.00028825371381515817
-0.005857607042423282,0.00016181943170138225,0.0003276146501800285
-0.006239107956428614,0.00010338026881490099,0.0003540035175210739
-0.0063013088215619,3.7047906117442166e-05,0.0003656012877931235
-0.005994999943284878,-3.627585530106551e-05,0.00036081257447800457
-0.005273676218255541,-0.0001157150788143362,0.0003382808170308063
-0.004095450108986865,-0.00020041460835462687,0.0002968900426433332
-0.0024252786102290113,-0.00028950536379106705,0.00023576856373526872
-0.0002376851346179526,-0.0003820570390330989,0.00015431036345958042
0.002480817295708195,-0.0004770077552999073,5.219745448587832e-05
0.00572896939842699,-0.0005731148195452604,-7.054851218892662e-05
0.009489652473875627,-0.0006688742583465564,-0.0002135438180278344
0.013727348119871318,-0.0007625404323033448,-0.00037595607862831435
0.01838997960764506,-0.0008520460713955561,-0.0005565358633890025
0.02340521983768185,-0.0009352015486912061,-0.0007534697040839208
0.028689974914836436,-0.0010094636641119878,-0.0009646042541378113
0.034139183489639534,-0.0010725450334014316,-0.0011870741655817865
0.03965418611832469,-0.0011215440807423387,-0.0014180399624172761
0.04510056684590397,-0.0011548210204894319,-0.0016535135251145858
0.05039411882455143,-0.0011689227696888187,-0.001890623990734085
0.05535978931162734,-0.001164343351692034,-0.0021239165779233884
0.05999869153375069,-0.0011352872970270456,-0.0023521417461413326
0.06403288265452878,-0.0010877243054081417,-0.002566774865897486
0.06771905269858228,-0.0010073725650053464,-0.0027719948513669156
0.07043426673734769,-0.0009157000061982238,-0.002950498263470681
0.07312287446121944,-0.00077279076791456,-0.003121442498444751
0.0740786305137758,-0.000645267372442222,-0.003242619551968706
0.07612798147786211,-0.00041957503990231956,-0.00337378429798778
0.07446128755603935,-0.0002890244862546688,-0.003406114217185013
0.0770541956944018,6.54310932267691e-05,-0.003506486443624887
0.07066565926190742,0.0001078631213070369,-0.0033951071800951884
0.07697852522480073,0.0007099018758648903,-0.0035099067061348447
0.0606834986862307,0.00043846841174723555,-0.00314745350013175
0.0787223852093559,0.001595117747698205,-0.003397990557773309
0.03998283969961641,0.000471893140845358,-0.002519051542880693
0.08898100901838746,0.002908514603212576,-0.002966796640466847
0.0,0.0,0.0
0.0,0.0,0.0
-0.00252851661823549,0.00035729124794739285,0.0001276779255929994
-0.003854138879295979,0.00034672609864851324,0.0002154334034484766
-0.005011012211416638,0.000310188039422322,0.00028684280425638804
-0.005965153435622774,0.0002596549313776076,0.00034596023608277564
-0.006656540435157099,0.00019693696729435365,0.00039142391227691916
-0.007025370671100685,0.00012328228849167448,0.0004210260124227847
-0.007013253282750785,3.989125499045364e-05,0.0004326955327834655
-0.006564406927476257,-5.205412000297323e-05,0.0004246696671675868
-0.005627379222209935,-0.00015140139491668189,0.00039550803550682543
-0.004157344407018109,-0.00025701970336153426,0.000344085574303175
-0.002118581068956288,-0.0003677537558109078,0.00026958446165412716
0.0005125089820002296,-0.00048236752502331745,0.0001715096700989479
0.0037450377343426844,-0.0005994577110963031,4.970015566865501e-05
0.0075707276498966705,-0.0007174064697596949,-9.561734832116177e-05
0.011963601255263514,-0.0008342803200129151,-0.00026382577372621155
0.016877134642403594,-0.0009478820415656012,-0.00045381234452026664
0.022247982166614746,-0.001055631400984139,-0.0006640458690896482
0.027990336404686733,-0.0011548775130912894,-0.0008923642085627809
0.034010224209230035,-0.001242527935603585,-0.001136325638714696
0.04018743118742548,-0.0013159611788127515,-0.0013926370251210799
0.04641717284453075,-0.0013716729659617893,-0.001658242556856257
0.05254517305976854,-0.0014080524139893108,-0.0019285502434605196
0.058492131478740085,-0.0014208157580077295,-0.002200694222356969
0.0640452323723849,-0.001411418844651761,-0.0024681539193753335
0.0692403467672549,-0.0013722949219391511,-0.00273036687103716
0.07371349128868952,-0.0013125530337200215,-0.0029766209099475905
0.07784367501177107,-0.001212891698197238,-0.0032136869384675466
0.08079241310927474,-0.0011033249062416418,-0.003419187518353731
0.08385636653791813,-0.0009298392280240759,-0.003619582062826844
0.08476175640091012,-0.0007819028952603979,-0.0037602473274846414
0.08726310976166284,-0.0005086740359222065,-0.003919426590374063
0.08507969358369491,-0.0003629937620024094,-0.003958465718413408
0.08852710596550172,6.870577642237985e-05,-0.0040885081650114535
0.08070144433056795,0.00010159924304290346,-0.003961084493059257
0.08897424103274584,0.0008381995091137628,-0.004114921414884328
0.06928660182367696,0.000488382050293258,-0.0036953457047532597
0.09189783121699832,0.0018963360709632832,-0.004008713888524825
0.04560013134698116,0.0005310466120556206,-0.002985560648204374
0.1049158740958008,0.003452757527601986,-0.0034869015855802828
0.0,0.0,0.0
0.0,0.0,0.0
-0.002980858650018164,0.0004392790804682302,0.0001545961264150714
-0.004467376403542978,0.00042566467532117243,0.00025944998663634606
-0.005746567385802543,0.00037938856261092804,0.0003434976565183912
-0.006780331503726326,0.00031563854159274155,0.0004122052984347189
-0.007498227391042129,0.00023682971055209574,0.00046418569730285103
-0.007831199507128447,0.00014464495685311837,0.0004969414563010596
-0.007713235610881016,4.0690932566219626e-05,0.0005081612739896809
-0.007082869582573078,-7.346321324744487e-05,0.0004959512656354832
-0.005885170659871332,-0.0001962989202710291,0.0004588471113088012
-0.00407433345245361,-0.0003263378950644858,0.00039579303871457297
-0.0016162309148651701,-0.0004620809632794825,0.0003061137785465278
0.001508385286580391,-0.0006019410393897503,0.00018951799861039392
0.005301844014692232,-0.0007441344871623979,4.6087937033836484e-05
0.009746536043612239,-0.000886640503962862,-0.00012366726822476116
0.014805883111304312,-0.0010270690750090392,-0.0003188433714990853
0.02042097286115624,-0.001162760435884424,-0.000538009259536389
0.02651706519492059,-0.0012905979523470537,-0.0007793543584417199
0.03299480583405733,-0.0014074814557959324,-0.0010403756801041753
0.039751410627119815,-0.00150973675140783,-0.0013184130026161662
0.046652194437373,-0.0015944623428536565,-0.0016097804081992135
0.05359134987792896,-0.0016574578230511817,-0.0019113534380521921
0.06039430141114783,-0.0016972732772215413,-0.0022179399154025666
0.06699616444264987,-0.0017085271625500316,-0.002526918484101137
0.07313885847846172,-0.001694016640888186,-0.002830536730708844
0.07891057531133502,-0.0016437551224262154,-0.003129323393550879
0.08383518933131812,-0.0015710447876928937,-0.0034098177542125742
0.08845404058013426,-0.00144994015601638,-0.003682226874579133
0.09164726984179894,-0.0013215947808470482,-0.003917762624285033
0.09516208736690217,-0.0011138520240593802,-0.004152072839219484
0.09600415934404767,-0.000945109480646994,-0.004315242600752372
0.09908531996072241,-0.0006177962037462794,-0.00450799921408138
0.09631061658206476,-0.0004581007316630743,-0.0045560391981829445
0.10083925656091852,6.278155462210141e-05,-0.0047226270906695
0.09137023698072594,8.123304145130883e-05,-0.004579685606024884
0.1020137694361091,0.0009737989949811959,-0.004780953091324383
0.07847008564431315,0.0005321004481822,-0.004301564062697329
0.10639795997539647,0.002228517035893111,-0.004686768791187551
0.05161020544467755,0.00058977115287899,-0.003508254870598574
0.1225833751839718,0.004058437308966926,-0.004058152583306062
0.0,0.0,0.0
0.0,0.0,0.0
-0.003481314946876978,0.0005351886344656435,0.00018694660449486414
-0.005123855690085723,0.000517721377657248,0.0003122060623600582
-0.006515066325088217,0.00045955976219150155,0.0004110244114477565
-0.007613488628741234,0.00037978214174249454,0.00049063590470702
-0.00833764605050796,0.00028159066091125294,0.0005497022675414878
-0.00860884878069127,0.00016724718951226065,0.0005854676590208188
-0.008353469073967714,3.890006494838955e-05,0.0005954452592844684
-0.007504862422058886,-0.00010136806929974098,0.0005777164776493693
-0.006005683407015171,-0.0002515592383641662,0.0005309273957472609
-0.0038107972877387056,-0.0004097526083021483,0.0004542377628595731
-0.0008897645746720287,-0.0005740283514071966,0.0003472567200102807
0.0027698789230459933,-0.0007423929274401553,0.00021002528880565007
0.007161266496989172,-0.0009126425692401238,4.2972729756842446e-05
0.012255076985237808,-0.0010823374271894488,-0.00015302877145476556
0.018002447111290048,-0.0012486220460810342,-0.0003767457206070538
0.024330711610618293,-0.0014083928746543735,-0.0006264088439299833
0.03115396054147457,-0.00155799780363947,-0.0008999625555733798
0.038359327536773416,-0.001693936286875029,-0.0011945993116614353
0.04583796605807638,-0.001811932958120541,-0.0015075574868784114
0.05344120413621651,-0.0019089020520644778,-0.0018348217313306665
0.06106849402875949,-0.001979833081650804,-0.002173412594651303
0.06852364716454983,-0.0020236181400412083,-0.002517560115347347
0.07576819633918153,-0.0020334134404346245,-0.0028652231933504156
0.08248872453400868,-0.002013824490611865,-0.0032072353839331866
0.08884804211669545,-0.0019515770194117369,-0.0035457550656759593
0.0942248241278247,-0.0018654569433574127,-0.0038639104238441767
0.09937181661032063,-0.0017208379659215353,-0.004176378544072052
0.10280701697089714,-0.0015731702194616975,-0.004446383521497405
0.10684514040747924,-0.0013273214669421586,-0.004720928671447594
0.10759074498206454,-0.0011378255715506595,-0.00491151334469161
0.11137876698809994,-0.0007494750849396172,-0.005145720685022097
0.1079099838394127,-0.0005776137420744426,-0.0052071980703710915
0.11375395978281512,4.5011464221635247e-05,-0.005419543784014027
0.10240454380993547,4.2948828592684736e-05,-0.005263572435033964
0.11585492632840001,0.0011136595623048259,-0.005522264015530081
0.08797147629245736,0.0005650997132815774,-0.004981489752924396
0.12200832391919833,0.0025877485053865364,-0.005447248812371561
0.05781568536122095,0.0006435060558829147,-0.0041008298500510385
0.14181966077916128,0.004719033308298678,-0.004690163159155858
0.0,0.0,0.0
0.0,0.0,0.0
-0.004062526274585948,0.000648787090072411,0.0002247715516772484
-0.005875175808233357,0.0006262695282951616,0.0003735684455536345
-0.007382557758514471,0.0005532042827942065,0.0004890335749658964
-0.008539645971651586,0.0004535214734413694,0.0005806530400526131
-0.009252891378718237,0.0003315400980121114,0.0006472697895605644
-0.009434081354395038,0.00019037165238789826,0.0006859124819662402
-0.009003238477543052,3.2938152403631424e-05,0.0006939705180949186
-0.00789077336297984,-0.00013798077751224868,0.000669583461336526
-0.006039821566024276,-0.00031977707475628996,0.0006116183248756408
-0.003409213315322893,-0.0005100079524791939,0.0005195796246955194
2.4488159151940375e-05,-0.000706292802943101,0.0003934943956429227
0.0042637836587097015,-0.0009062244091052603,0.000233864881581565
0.009289997213909105,-0.0011071879726557057,4.1574561771560265e-05
0.015059859476953243,-0.0013063584584904566,-0.00018205437130398492
0.021511104749264435,-0.0015004487639608485,-0.00043541630549337175
0.0285565433767688,-0.0016859770280954697,-0.0007163820469310507
0.036100352128874434,-0.0018587883463477665,-0.001022696190425034
0.04401681653146588,-0.002015076491684317,-0.001351284643909825
0.052195116627380876,-0.002149959477611969,-0.0016994241925571574
0.06047319872761624,-0.0022603179230326884,-0.0020628271012797807
0.06876392819608053,-0.00234019689695642,-0.0024389097207115525
0.0768474758784058,-0.002389084630560891,-0.0028213202114520885
0.08472739966069023,-0.0023982034560060895,-0.003208999574706047
0.09202251938908189,-0.002374549308311578,-0.00359111605169186
0.09899916145266488,-0.002300431497322496,-0.003972104935959208
0.10485077615001656,-0.0022016685856282407,-0.004330865304417335
0.11060181966112989,-0.0020324151131973023,-0.004687752323922037
0.11431133870810123,-0.0018661435936882262,-0.004996152324908575
0.11899852900174294,-0.0015789850424018602,-0.0053168796372275035
0.11965600117551178,-0.001369895556360862,-0.005539184367977018
0.12434277844652285,-0.0009134874146839234,-0.0058223063611302075
0.12011440141955873,-0.0007319118135868074,-0.0059010822415569205
0.12757406617091846,6.334150979254995e-06,-0.006168117608983222
0.11412512515001703,-2.1966899335856917e-05,-0.00600151594578837
0.13087014011966966,0.001252078372027584,-0.0063278239692525886
0.09814229274258346,0.0005831179040330787,-0.0057251973862090895
0.13910343051617635,0.002974660333829828,-0.006280873922344111
0.06449869698820589,0.0006937426381190578,-0.004756442183723482
0.16294673197058496,0.005444949302196171,-0.005374340909547128
0.0,0.0,0.0
0.0,0.0,0.0
-0.004698128756424444,0.0007802655705005288,0.0002712481721095033
-0.006666680676408522,0.0007514375129838994,0.00044899935420700303
-0.008271037331089921,0.000660402664395269,0.0005846127020781719
-0.00946482033616425,0.0005369013538104098,0.0006903366171322585
-0.0101424348929394,0.0003866731300778422,0.000765344803041071
-0.010206099416318917,0.00021392330737331718,0.0008065658612586108
-0.009569599061064764,2.2568544232686994e-05,0.0008114474720021742
-0.00816089734897667,-0.00018371982527920326,0.0007784322354668822
-0.0059246221535807705,-0.0004015622498541163,0.0007068793837616983
-0.0028252082829443312,-0.0006278756510640776,0.0005969018938293921
0.0011517345039544962,-0.0008597422089655521,0.00044917175693043966
0.0059963655737237795,-0.0010943119134330704,0.00026483342186196617
0.011676099161630822,-0.0013285610477903863,4.534507008407358e-05
0.018131642573127466,-0.0015593276291946392,-0.00020744592689558476
0.025286370402240223,-0.001782949200718319,-0.000491553821348715
0.03303760373492257,-0.0019956724109617004,-0.0008045064084025526
0.0412810268089183,-0.0021929002550611803,-0.0011439489928259678
0.0498782178169836,-0.0023706643502812374,-0.001506619544042096
0.058720783889179874,-0.002523475717071499,-0.001890038735921472
0.06763250086323334,-0.0026483880645464843,-0.002289730932478917
0.07654847248914076,-0.002738326952177811,-0.002703842648933347
0.08522046964805381,-0.0027937088014939725,-0.0031254451173704893
0.09371214930299349,-0.0028032104888590544,-0.0035549919745239754
0.10155749942891686,-0.002776930697994859,-0.003979713293168066
0.10916134747093512,-0.0026913279997096114,-0.004407161622518928
0.11548270306232156,-0.0025811045507751216,-0.004811088973920998
0.12188974578470363,-0.0023861276748828944,-0.005218991054545397
0.12586808112169987,-0.002202295504399664,-0.005572327924099494
0.1313002487139616,-0.0018703584479561207,-0.005948477927320587
0.13182645606632612,-0.0016432436395174314,-0.006210373162977352
0.1375698341115249,-0.0011113830600354678,-0.00655397503513353
0.13245501042923585,-0.0009234080383443942,-0.006658016694489701
0.14180384520129455,-5.553341991577481e-05,-0.006992817230797483
0.1259821181796642,-0.00011746057630506417,-0.006821678222704385
0.14651099199049897,0.0013846000885101837,-0.007228570161899407
0.10841869070317871,0.0005794232150037851,-0.006565208456409374
0.15716448200140815,0.0033807193951456245,-0.007219652801707381
0.07122164797388426,0.0007316384750625543,-0.005502952529064089
0.18553907764317498,0.006219312830448463,-0.006133166731310145
0.0,0.0,0.0
0.0,0.0,0.0
-0.0054673469462058095,0.0009372957165787436,0.00032547275255002874
-0.00762985178168533,0.0009000608570252726,0.0005365456820594598
-0.009353231270491235,0.0007861496790547077,0.000694810968869638
-0.010589162801919304,0.0006326952702438969,0.0008160313460099358
-0.011218930619650453,0.0004475132961808881,0.0008999732479757935
-0.011136336983820065,0.0002364373979561334,0.0009435831906613118
-0.010252051123700034,4.8005697500135136e-06,0.0009444804275180179
-0.00849605928640969,-0.00024254830723517112,0.0009015529215365059
-0.0058194970028201485,-0.0005013062635703159,0.0008148185330340478
-0.0021974009304706454,-0.0007677143476135994,0.0006851777312069192
0.0023712627004441066,-0.0010383600582041205,0.000514117876652631
0.00786076066668289,-0.001310049943552827,0.0003035788686849033
0.014222429768759778,-0.0015794662777762248,5.570414258611569e-05
0.02137941754165123,-0.001843256456091302,-0.00022705270183706846
0.029240990544015865,-0.0020975085400904052,-0.0005423124804782657
0.037689071737301995,-0.002338371709718561,-0.0008872604780702519
0.04661392318579105,-0.0025609012411068385,-0.0012595411904048018
0.055865323660653624,-0.0027611662367809106,-0.0016557585136951123
0.06534358330920555,-0.00293307115825646,-0.0020738871872050474
0.07485724695458758,-0.003074122326461539,-0.0025093003135818665
0.08437483926882244,-0.003175911924401436,-0.002961224407572524
0.09361318812056262,-0.0032402348031960555,-0.0034220751498083434
0.10271873821666477,-0.003252473051109524,-0.0038944016650894575
0.11111999601535637,-0.0032267197841187637,-0.004363094899029394
0.11940436917559226,-0.0031318093373988707,-0.004839783405135418
0.12623909123170277,-0.0030134978722771506,-0.005291952343167883
0.13342288966326013,-0.0027936576181242143,-0.005755900281019824
0.13773561582169186,-0.002595626922963853,-0.006158780586828522
0.14410472879569758,-0.0022170370077531703,-0.006597594888470163
0.14454488425746229,-0.001975379185508121,-0.006904573939156962
0.15161752997713102,-0.001361144987206553,-0.0073178935487789405
0.14557851444609377,-0.001170729014339429,-0.007452731372355824
0.15720188203716431,-0.00015749295531501247,-0.007866294726200916
0.1387933191731081,-0.0002587387256773523,-0.007695245189025808
0.16366901657244706,0.0015010200188330482,-0.008195034166185578
0.11967325539137526,0.0005481014225511227,-0.007473134289145721
0.17707328475483253,0.0038092641223816163,-0.008236774437918289
0.07867701861339267,0.000763032573995618,-0.006318406790891768
0.21035725636289856,0.007067829502264181,-0.006944913431347564
0.0,0.0,0.0
0.0,0.0,0.0
-0.006293028191427282,0.0011173907817960014,0.00039439853275927177
-0.008617158849324675,0.0010697976288677152,0.0006482400708351647
-0.010425390996093645,0.0009286769266342152,0.0008352838896603813
-0.011672609528897912,0.0007399048340335832,0.000975537806255504
-0.012228150872747047,0.0005138573908576771,0.0010696523017112956
-0.01197737065866344,0.0002583756534215729,0.0011149054195869576
-0.010827071810237331,-1.9467798119175243e-05,0.001109534413412325
-0.008708430694465145,-0.00031338092982039525,0.001053403542017676
-0.005578626729355968,-0.0006179357842332012,0.0009477162101059739
-0.001423639788993825,-0.0009285745972135937,0.0007946179151593258
0.003743330750206799,-0.001241339441664641,0.000596756113144351
0.009879158272990055,-0.0015527241508058356,0.0003570993972919012
0.016918033348655187,-0.001859191294465147,7.858905889238424e-05
0.024764129087496436,-0.0021573431346763095,-0.00023567622270900457
0.03331273633158983,-0.0024431560970842514,-0.0005829877350752954
0.04242950131137094,-0.0027129004955900138,-0.0009602646755823072
0.052001828790502753,-0.0029613979523503823,-0.0013653455162773301
0.06186682236346368,-0.003185010272080883,-0.001794819436044503
0.0719393621658479,-0.0033770177728611565,-0.0022474269605057416
0.08200852112808842,-0.0035357257300846954,-0.0027184643652100786
0.09208733816820251,-0.003651102670494658,-0.003208708010410971
0.1018457644046154,-0.003726886865951713,-0.0037098475117818305
0.11153769375962086,-0.003744231865292857,-0.004227290528647134
0.12045777656087414,-0.00372231316991378,-0.004743171405128727
0.1294270277086712,-0.003620188218631806,-0.005274431450867198
0.13675168005341692,-0.003497220881282459,-0.0057810951962783096
0.1447619415358199,-0.003252961004366279,-0.006310283211732822
0.14937985841986604,-0.003043984996353348,-0.00677225711077112
0.1567841306369673,-0.0026161619310645164,-0.007287053585825402
0.15706099180679353,-0.0023635233402589315,-0.007651416604035409
0.16562583166582048,-0.0016595618252469337,-0.008151416107910724
0.15848836768993474,-0.001471775668591784,-0.008330577067518578
0.17267146040553089,-0.0002982944760156805,-0.008841962972136796
0.15135040352120385,-0.00044766569324687893,-0.008682810805162687
0.1810941135051159,0.0015962708840229702,-0.009293501509652732
0.13063835184606354,0.0004790717335157013,-0.008517732391199807
0.19762008787796229,0.004243239648630451,-0.009400646032651243
0.08586335683766846,0.0007698808200372469,-0.007261351031565589
0.23638711161288267,0.007950822696832342,-0.007860336429314146
0.0,0.0,0.0
0.0,0.0,0.0
-0.00736261379444619,0.0013371732996576566,0.0004741927290265844
-0.009945638134798226,0.0012753690877399884,0.000776661296588236
-0.011906488100310152,0.0010985226387648147,0.0009955347176665483
-0.013200909220670182,0.0008640878132297197,0.0011562847023683614
-0.013684938436226628,0.0005863561847850471,0.0012609555685775687
-0.013238875704049954,0.00027623837487330877,0.0013074160697382875
-0.011772700437100374,-5.671083109760636e-05,0.0012947266116722627
-0.00922772658979564,-0.0004043656313426661,0.0012239354348659221
-0.0055761172532733175,-0.0007600896728545855,0.0010976442192372918
-0.0008226215395843936,-0.0011186721465006606,0.0009194557040763473
0.004999672533642428,-0.001475876402611856,0.000693363641910811
0.011826436411249516,-0.001828215022492579,0.00042352263770124496
0.01957357941973461,-0.0021722401704754443,0.00011376278534223283
0.028125960044304132,-0.002504831807339482,-0.00023211249850648802
0.037367256007444394,-0.0028220958657944467,-0.000611098780795187
0.0471478294629687,-0.003120728686981431,-0.0010198698938294617
0.05735759099276831,-0.0033954555549855167,-0.0014566151985292383
0.06782139926315307,-0.0036432475438057175,-0.0019179510533559908
0.07847774725712306,-0.0038567163571253077,-0.0024036620588359908
0.08909190111776942,-0.004035403838317516,-0.002908927358314703
0.09973637068990532,-0.004167296102756424,-0.003436519362977472
0.11001992483742294,-0.004258818167060685,-0.0039771609406462445
0.12033500361137554,-0.004285798944284034,-0.004539898763388457
0.12980936592302666,-0.004273861335843097,-0.005103468823457836
0.13956081830437245,-0.004169736699577625,-0.005691469789832733
0.14745648664151326,-0.004049348294432621,-0.006254988160303734
0.15647800056372907,-0.003784826233751986,-0.006854210906852386
0.16151885213048173,-0.0035723890810836303,-0.0073795813135534225
0.17024087731181403,-0.003096209844237289,-0.007977957647436244
0.17046409094499007,-0.002839712978493054,-0.008405507174384637
0.1809058259199673,-0.002040333968495991,-0.00900248273209578
0.17269504939042365,-0.0018612278623264661,-0.009232602855557067
0.18994062213135057,-0.0005100875523372144,-0.009854712657070086
0.16552883021962295,-0.000712363260311586,-0.009714220343599008
0.2008017536720853,0.0016517482663552972,-0.010451129672124432
0.1433104554822489,0.0003634012037625168,-0.009626685528972806
0.22080902973027244,0.00469333487124386,-0.010642494937755983
0.09437044831697812,0.0007679388332908436,-0.008273736000366164
0.26538248767794004,0.008929703049359548,-0.008825907446449335
0.0,0.0,0.0
0.0,0.0,0.0
-0.008466860197199793,0.00158616923246945,0.0005803119791043796
-0.011230232008374315,0.0015071368194549662,0.0009486061095197481
-0.013273391668114793,0.0012885224694807135,0.001210326444095294
-0.014564054507088867,0.0010012444647183674,0.0013974751048106888
-0.014947955351474805,0.0006642442533460747,0.0015141068788752485
-0.014298993256721322,0.00029202783768647063,0.0015595025917013983
-0.012526015547812398,-0.00010296276606350707,0.00153462181790224
-0.009575157494415685,-0.0005104620807857,0.0014428450445833044
-0.005428717041615178,-0.0009224123641007124,0.001289193221084191
-0.00010706866159761061,-0.0013328520576134906,0.0010795098711968534
0.006338577039726999,-0.0017372697059160674,0.0008196380737123536
0.013822745855691473,-0.002132322575225593,0.0005151869118946947
0.022243382939399862,-0.002514824383652191,0.00017092876008932223
0.0314650315107713,-0.0028822030395166502,-0.0002086801379283432
0.041360873676924745,-0.003230912218416069,-0.000620533888293573
0.05176424119552397,-0.0035584160023306036,-0.001061231085920324
0.06257093232235801,-0.0038594785894235373,-0.0015296416442216482
0.07359000757032741,-0.004132056908517288,-0.0020225725314029614
0.08479095645255282,-0.004367994287973645,-0.002541304927090071
0.09590522272145019,-0.004568583358226042,-0.003080942332116762
0.10707870678672235,-0.004719337249818843,-0.003646899382425178
0.11783589282654411,-0.00483026685121886,-0.0042287321359064925
0.1287399304181298,-0.004870541896738759,-0.0048401834013169385
0.13870654866426846,-0.0048738843214395705,-0.005455962763039368
0.14922047557341284,-0.004771711927116283,-0.0061080858020725005
0.15761563053843144,-0.004659959488214032,-0.006737195216968752
0.16766095734126552,-0.004377563328378101,-0.007419333130324599
0.17302806238981946,-0.004167720134287801,-0.008022026311817448
0.18312217517433907,-0.0036421071324888956,-0.00872328967421222
0.1831291055308048,-0.0033880090320729545,-0.009233115717565566
0.19556415657530166,-0.002486699929666958,-0.00995254505541489
0.1860057086921448,-0.002323944403695216,-0.010256158735829433
0.20656294363962913,-0.0007804420603195887,-0.01101834807450787
0.17863751279081036,-0.0010470341914146646,-0.010917825450276019
0.2199697209340479,0.0016642372034526886,-0.011808654805884784
0.15483090970028224,0.0001859039049828922,-0.010945524710048187
0.24386986454424547,0.005125411929611796,-0.012108453432521966
0.1019130092273019,0.000719493923017905,-0.009480482997495671
0.29497820373905276,0.009912985171947716,-0.00995343092252843
0.0,0.0,0.0
0.0,0.0,0.0
-0.010042721312274013,0.001901368372983071,0.0007009606818937753
-0.013215380670904758,0.0017975375692412835,0.0011420450688757928
-0.015508363718675375,0.0015211967173236138,0.0014492847841137523
-0.016893663461086342,0.001162283782708508,0.0016633153136978262
-0.017205056857288056,0.000747330486198543,0.0017912298556347329
-0.016319392030442092,0.0002965791148340696,0.0018342551686665572
-0.014161046256186107,-0.00017339072675146607,0.0017955727963669369
-0.010700186629107988,-0.0006497931894962491,0.0016811295811836177
-0.005946601548665363,-0.0011234207977683598,0.0014985611255033896
5.0265381547452826e-05,-0.0015882232120811536,0.0012561360030404057
0.00721294977876823,-0.002040195689990393,0.0009616977565011391
0.015430561453871325,-0.002476921169615329,0.0006224354013891959
0.024583541399643367,-0.002896104589615298,0.00024410568191564596
0.03451740377814986,-0.003296292361821748,-0.00016815803583230662
0.04510018870775505,-0.0036746452534814128,-0.0006112428129225069
0.0561500864712989,-0.004029835370258967,-0.0010817017731052563
0.06757725798618532,-0.004356796445461456,-0.0015792990083162769
0.07917423537954485,-0.004654910652741274,-0.002101022960691893
0.09095475871595954,-0.004915086563769579,-0.00264999504332406
0.10260774610664661,-0.005140998824315301,-0.003221064405728294
0.11437364932828588,-0.00531508737129129,-0.0038228409824677206
0.12566795718361634,-0.005452103050422601,-0.004443216748326901
0.1372667793735803,-0.005513032636835796,-0.005101640391260921
0.14782367069052058,-0.00554176393481275,-0.005767786316010404
0.15927700564403846,-0.005450975264767341,-0.006483916234669107
0.16832386783532555,-0.005360591961527577,-0.007178265141803714
0.17968129414468403,-0.005069669702879032,-0.007945782129197701
0.1855856562302702,-0.0048763284999173585,-0.00862744825133173
0.1974769706001891,-0.004307324321304698,-0.009437347170605244
0.19749829855381673,-0.004068910524643091,-0.010033184791598449
0.2124933563475549,-0.0030634322615336845,-0.010884597582507217
0.201745125069535,-0.00292694599407077,-0.011267430284240256
0.22631668796681909,-0.0011725149864658447,-0.012183781861934783
0.19479465994742343,-0.001506804298703419,-0.01213097424231146
0.24302172993742369,0.0015975637985588963,-0.013195467218142356
0.1696143256153002,-6.91594967727091e-05,-0.01230212864445702
0.2712499757347407,0.005566350247714746,-0.013633052917224437
0.11204198365570893,0.0006618129859874278,-0.010740313844478076
0.3291203339380642,0.0110416926756664,-0.011114634524943937
0.0,0.0,0.0
0.0,0.0,0.0
-0.01155270869358533,0.0022507463692915874,0.0008709775697620092
-0.0149336641902292,0.0021174241024881657,0.0014173081377816688
-0.017312149031169507,0.001775191655951107,0.0017901457118731905
-0.018688092305802238,0.00133557103974851,0.00204042641918468
-0.018888768603081793,0.0008337004732021045,0.002179803915392852
-0.01778690078979001,0.0002961181004179216,0.002213648592885955
-0.015307279853213503,-0.0002561213231384484,0.002149970175525814
-0.011426833301841303,-0.0008074721280268706,0.0019997608142554657
-0.0061676493473868345,-0.0013474001383469618,0.001775219948844092
0.000402071338504102,-0.0018697099587299782,0.0014883288102459666
0.00818478340364901,-0.0023709657393351656,0.001149591410973779
0.017045933177094245,-0.002849910978366412,0.0007679883876872886
0.026849683557077213,-0.0033054149572458442,0.00035013039735319433
0.03742068016961356,-0.0037375493733063643,-9.842663685412432e-05
0.0486231118936213,-0.004144454416424261,-0.0005749857887614803
0.06025572900261163,-0.0045264711577299764,-0.0010763790259541604
0.07224670637660598,-0.004878799241835548,-0.0016037886600731312
0.08436367434906641,-0.005202752687420952,-0.0021546102994515677
0.09667391898732691,-0.005488036014247355,-0.0027344530117020364
0.10880570922592978,-0.0057414294546526716,-0.0033379186448854238
0.12111266590155158,-0.005941490736481843,-0.003977712250097901
0.13286326526951642,-0.00610906625412951,-0.004639700885285617
0.14508853533771382,-0.006195114192433829,-0.005350499063617083
0.1561113111533028,-0.006256158690958939,-0.0060738282505668284
0.16841637614684105,-0.006182197258564734,-0.006864676503437656
0.17793695315073846,-0.006121818474822422,-0.0076369386348744805
0.19051647747442618,-0.005826761774303324,-0.008508434374729645
0.1967128274938558,-0.005659260560427352,-0.009289780471094562
0.21032731993690612,-0.00504787779912531,-0.01023712680804045
0.2100150477797741,-0.004835181045554473,-0.010948918167071017
0.22754462778658557,-0.0037210256903099084,-0.011972168180492128
0.21512010175117083,-0.003623026270736559,-0.012471904773452343
0.2438307344563129,-0.0016450880290879244,-0.013590597441297491
0.20808532906476007,-0.002064487161081825,-0.013623622369791248
