-0.000639844931515042,-6.715980072677427e-05,7.369478313747031e-05
-9.600987967283633e-06,-8.903180138637213e-05,4.430642608159244e-05
0.0007818342628165522,-0.00011176368523174749,6.754192073372395e-06
0.0017368017699589831,-0.0001350402986362503,-3.916754928568512e-05
0.0028528312620967364,-0.00015847904488515722,-9.351056240350584e-05
0.004121983945300084,-0.00018162655929580747,-0.0001561447488229928
0.005530656763384038,-0.00020395246576529545,-0.00022673918447640477
0.0070592458014172915,-0.00022486632779661426,-0.0003047340023040293
0.00868301033816895,-0.0002437081162089859,-0.0003893452600829346
0.010371637937951742,-0.00025980732130854105,-0.0004795281282615771
0.01209232324066814,-0.00027242277022752746,-0.000574045080680146
0.013806958166926137,-0.00028092266884461827,-0.0006713607493475493
0.015481252203411582,-0.0002845085694191983,-0.0007698918857528404
0.017071612076903168,-0.00028280758633196393,-0.0008676107848827801
0.018554231855214605,-0.00027480970766017145,-0.0009628802680473753
0.01987462300636392,-0.0002609133291297652,-0.001052999625395404
0.021044752604866882,-0.00023915438798347664,-0.0011369939977339517
0.02196546251502507,-0.00021224888815199382,-0.0012105849096010397
0.02275254712239615,-0.0001747215505984277,-0.0012754553031482938
0.02314271456969402,-0.00013647647020488646,-0.0013225784823587639
0.02356441469170161,-8.024283572556585e-05,-0.0013622816553972364
0.02321965372550807,-3.801530574678937e-05,-0.001370818700644677
0.02348782866313888,4.491929165094636e-05,-0.0013849641604930434
0.021935472312773128,7.010596339180444e-05,-0.0013364179322110361
0.022765626527989254,0.00020542975155424982,-0.0013396974356833463
0.018752380258185018,0.00015807513303323531,-0.0011964721504324584
0.022193776020987405,0.000423259899859853,-0.0012407011893632498
0.012365944880910468,0.00015912940061065436,-0.0009044982695949553
0.023877003351741248,0.0007610222892341797,-0.001080582730794949
0.0,0.0,0.0
0.0,0.0,0.0
-0.0006905172321027264,8.245707236342553e-05,3.641323654384161e-05
-0.001112973814317744,8.012335812403129e-05,6.312862950005017e-05
-0.0014896142752063278,7.205716241269824e-05,8.605360717693755e-05
-0.001805998647421798,6.065935848315977e-05,0.00010562545337131069
-0.002042319506431933,4.619510578048852e-05,0.00012110688209117386
-0.002178454570461852,2.882830497281659e-05,0.00013160323667992516
-0.0021941812547908693,8.726770986678655e-06,0.00013623767854997661
-0.002069490709386879,-1.3925558034595835e-05,0.00013418318385794117
-0.0017851130942500542,-3.892409234303704e-05,0.00012467551818565254
-0.001323255536826832,-6.603668761870487e-05,0.00010702662038581707
-0.0006685103782470853,-9.49925290396759e-05,8.064109954068906e-05
0.00019109383117798327,-0.000125468422453407,4.5037234624257864e-05
0.0012630145648120947,-0.00015707276388080783,-1.2919577661106513e-07
0.0025491016484120044,-0.0001893326100192421,-5.503664092349677e-05
0.004044752405237176,-0.00022168038579959142,-0.00011967178803393182
0.005738106029104592,-0.0002534541429122163,-0.00019379854507727698
0.007609945699777623,-0.0002838913107856532,-0.00027694236063580704
0.009633245387901548,-0.0003121598513010885,-0.0003683588479017506
0.011774593499556223,-0.000337342729499348,-0.00046705326727484564
0.013993318117004822,-0.0003585342571260087,-0.0005717312140018654
0.016246261281561775,-0.0003747376300219067,-0.0006809095684798073
0.018482854877033324,-0.00038515217227639295,-0.0007927567068390185
0.02065933721862911,-0.00038872310965489063,-0.0009054679120509239
0.022717445366863192,-0.00038507787642047493,-0.00101666969234703
0.02462981493240277,-0.0003728425728651699,-0.0011246397442800588
0.026321048225287906,-0.0003528247006202481,-0.0012261938781397898
0.02781747595139577,-0.0003221716202375865,-0.0013206560921385402
0.02897579011552084,-0.0002851330267032298,-0.0014027737375069754
0.02997640142991741,-0.00023354185571135267,-0.0014755299657547465
0.030433324600474397,-0.00018217274626480996,-0.0015273814290291186
0.030983060405481606,-0.00010550178204998875,-0.0015726074916645985
0.03046529701013765,-5.019670587838384e-05,-0.0015806474266339351
0.030877801238496795,6.304870151481356e-05,-0.0015991676489908986
0.028738448137554443,9.327069106317842e-05,-0.0015419910001932566
0.030011503727971896,0.0002789294416465497,-0.001551810295499008
0.024543310903682496,0.00020857244750661688,-0.001385684184749852
0.029455102848210516,0.0005717697453116336,-0.0014458064736298086
0.016162787305123168,0.0002080017587902193,-0.0010571158840092547
0.03195740281482723,0.0010233332256651254,-0.0012585339959832714
0.0,0.0,0.0
0.0,0.0,0.0
-0.0008756427281558394,0.00010869752787096254,4.393568329368058e-05
-0.0013941828067495841,0.00010555071101649934,7.565058787189837e-05
-0.0018524654472236704,9.470421403710453e-05,0.00010253090288054677
-0.002232301330184257,7.93960833136053e-05,0.00012526396309621535
-0.002508248803497261,5.9983719350601206e-05,0.00014300419836109563
-0.0026546053599417756,3.668488207116329e-05,0.00015468681522299983
-0.0026457552883860863,9.72398484182348e-06,0.0001592669664036113
-0.0024566221194155303,-2.064872072262002e-05,0.00015576544280425183
-0.0020633772532318794,-5.414902734303739e-05,0.00014328703474739368
-0.0014444037819392964,-9.044825301088439e-05,0.00012103865412537759
-0.0005814456886553474,-0.0001291579153880797,8.835059451795928e-05
0.0005390895008383796,-0.00016981235949758142,4.470275907051229e-05
0.0019248462862606884,-0.00021184917623815096,-1.0247234593247848e-05
0.003576229044062305,-0.0002545958474672345,-7.663110241292207e-05
0.0054855041544094665,-0.0002972554386206808,-0.00015434284185079358
0.007635888196791789,-0.00033891356224805246,-0.00024300435405920584
0.01000168865547196,-0.0003785317525442928,-0.0003419559151591574
0.012547681279425127,-0.0004149995554197138,-0.0004502193334130813
0.015231349805165379,-0.0004471070378830486,-0.0005665394698052741
0.018001203636018374,-0.0004736953469840627,-0.0006893129834927876
0.020803944170911547,-0.0004934860351711514,-0.000816762920252027
0.02357613453094538,-0.0005055255460005496,-0.0009466911615158362
0.026265692136054706,-0.0005084732902053729,-0.0010770409077680704
0.028798355720319538,-0.0005020383938672134,-0.0012049971929843446
0.031146290761407572,-0.00048439965675270414,-0.0013287765387598603
0.033208634713130625,-0.0004570011451233293,-0.0014445417803386619
0.03503467210390188,-0.00041580971488257697,-0.0015520904067231722
0.03642347703753011,-0.00036719971900571057,-0.0016448120595072202
0.03764393946188984,-0.00029940464206902774,-0.0017275540914270195
0.0381498693034747,-0.0002336239041963852,-0.0017852794273721434
0.03884892365729267,-0.00013356923297673035,-0.0018377566064420152
0.038119321524710086,-6.462167767530338e-05,-0.001845107158434914
0.03873585861480346,8.354604532104744e-05,-0.001869798408710563
0.03592177455240217,0.00011743495453634173,-0.001801601557032342
0.0377804629607902,0.00036154229239610534,-0.0018208609220101712
0.03065966365061956,0.00026234293857629794,-0.0016254397128595676
0.03735069318612602,0.0007387552345023298,-0.0017075914753476916
0.02016942767900464,0.0002599855809351458,-0.0012515155050142118
0.0408711386341167,0.001316991807202727,-0.0014866070747012522
0.0,0.0,0.0
0.0,0.0,0.0
-0.0010772382636495222,0.0001395800223471498,5.325889638308277e-05
-0.0016907565498781327,0.0001354209173535724,9.107520993949486e-05
-0.0022270236627633814,0.00012115948794253899,0.00012269709782314271
-0.002663813012768661,0.00010106291678671894,0.00014915650435026872
-0.002969395412256444,7.560979787076223e-05,0.0001694871038989155
-0.0031119721290312815,4.509038170649977e-05,0.00018242173220457198
-0.0030602034977871514,9.805299271133505e-06,0.00018671825245467953
-0.002783835279729079,-2.99057618796992e-05,0.00018122378879362734
-0.002254617829102198,-7.365136901784391e-05,0.00016489943634309093
-0.0014475126344090739,-0.00012097379290230189,0.0001368433233570866
-0.00034207583842732513,-0.00017132922132480583,9.631634842468683e-05
0.0010760096441166473,-0.00022406714444008627,4.2773315777860185e-05
0.0028135036625085846,-0.00027840759313860463,-2.4105730320313163e-05
0.004868173593695896,-0.00033342926008044123,-0.00010437838404155126
0.007227962969106893,-0.0003880547791312119,-0.00019781396226796848
0.009870016750096817,-0.00044106850474809686,-0.000303855626715402
0.012761256055003578,-0.0004911077958615783,-0.0004216213827569714
0.01585747870858855,-0.0005367452173715283,-0.0005498579875445317
0.019106785896874444,-0.0005764385983971948,-0.000687014558944237
0.022446515238209824,-0.000608760439851492,-0.0008311342311169977
0.02581382997006596,-0.0006321191590057399,-0.0009801205842417554
0.02913206677888043,-0.0006454342168655986,-0.0011313536693575966
0.03234268755175242,-0.0006470339772218549,-0.0012825227581002038
0.03535368479942596,-0.0006368191399944254,-0.0014302782033016892
0.03814120056869347,-0.000612393594944512,-0.001572835630285683
0.04057253923372033,-0.0005761456781759555,-0.0017055062352444438
0.04273165502345278,-0.0005224496164863174,-0.0018287951894293115
0.044341438352392785,-0.000460604642656253,-0.0019342628989866392
0.045791089280487106,-0.0003740173250861248,-0.00202930788983757
0.046324026566737835,-0.00029238264352445036,-0.0020942319194791064
0.04720185354962329,-0.0001653365129995733,-0.0021560779395623977
0.046212115735588574,-8.224356780047633e-05,-0.002162796471375842
0.04711105545977987,0.00010654666466335657,-0.0021959854346079327
0.0435132686263382,0.00014217123573952693,-0.002114687564251104
0.04613984726693753,0.00045476523680971527,-0.0021468333890834637
0.0371231704045885,0.0003192672103522248,-0.0019162352670074434
0.04598068629406487,0.0009274911698979045,-0.0020265727078069345
0.024396099379809258,0.00031485020771028716,-0.0014892257351485174
0.050768972097505895,0.0016472080317699903,-0.0017635902926219087
0.0,0.0,0.0
0.0,0.0,0.0
-0.001297238086458404,0.00017597052922398762,6.447583462661456e-05
-0.0020030182416089,0.00017053672104840327,0.0001095132006863909
-0.002611455285277182,0.00015206288924084096,0.0001466301237178133
-0.0030960008956299875,0.00012608232898778316,0.00017732151091811384
-0.0034179251596299105,9.323563328850376e-05,0.00020049708655627403
-0.003538821885691443,5.3914514375435995e-05,0.00021465969057838876
-0.003421377966926961,8.525900241329013e-06,0.0002183457662694287
-0.0030302068697011576,-4.2467543175095626e-05,0.00021021450959419458
-0.002332993687979251,-9.852949435930239e-05,0.00018907998485601476
-0.0013019448770441224,-0.00015903134690772159,0.0001539389094933191
8.462439338539645e-05,-0.00022322793200773916,0.00010399973168640038
0.0018405726904387066,-0.0002902344503860487,3.871741041940354e-05
0.00397044841713023,-0.0003590008942629823,-4.217442898844929e-05
0.006467981109091845,-0.0004283041097504,-0.00013862362202852595
0.009315474427746787,-0.0004967327326806646,-0.0002502385001866761
0.012482797362648845,-0.0005627210661503471,-0.0003762463968751214
0.015928654363696577,-0.0006245342411268028,-0.0005155116011664577
0.019599210534433507,-0.0006803929155672509,-0.0006664738274746078
0.02343323200206551,-0.0007283835332505449,-0.0008272678024179994
0.027356757652422004,-0.0007668016991967475,-0.0009955546951180643
0.03129860434316842,-0.0007937058839289279,-0.001168919177123435
0.035168632352166176,-0.0008079282097645849,-0.0013442792960957173
0.03890468836877113,-0.0008073984028448542,-0.0015191025491213682
0.04239475960422214,-0.0007923519032783296,-0.001689410927051586
0.04562515529741702,-0.0007596284168706061,-0.0018535239227719534
0.04842272396268505,-0.0007129614230007513,-0.0020056632812153275
0.05092154370256298,-0.0006445672171068917,-0.0021473494755617386
0.05274357760412802,-0.0005677130719554662,-0.0022677329140584923
0.05443920677783168,-0.00045937456980345027,-0.0023775985615159894
0.05497669760420766,-0.00036039423430158057,-0.0024511951232528417
0.05607577719726269,-0.00020213476586960496,-0.002524914365962271
0.05477168072898823,-0.00010452901155275025,-0.0025312914318205144
0.05605372268042705,0.00013164803215898055,-0.002575849980295806
0.0515452746846083,0.00016653167325069674,-0.002479700084606154
0.05516101690409398,0.0005595042764511553,-0.002528764806584974
0.04396479341337932,0.00037889404742951556,-0.002257682337315466
0.05544379859316907,0.0011406395181313435,-0.0024025119501694756
0.028863833996024362,0.00037245963870296596,-0.0017709698210116678
0.061785651393386654,0.002018763593633886,-0.0020880640038164334
0.0,0.0,0.0
0.0,0.0,0.0
-0.0015357658300896864,0.0002186427519015314,7.778997730072957e-05
-0.002327915932023747,0.0002116045387922056,0.0001312656801844637
-0.0029992071788476123,0.00018795613801181134,0.00017465738815233917
-0.0035186004322361485,0.00015477857327606114,0.00021006711469811283
-0.003839677246486945,0.00011292775456133477,0.00023628712290990955
-0.00391696932320038,6.293665512273958e-05,0.00025156883124661806
-0.0037070412573198203,5.3599027578525275e-06,0.00025421174206713485
-0.003169569046884898,-5.9171504661924995e-05,0.0002426849961452461
-0.002268722655074233,-0.000129926893895048,0.00021566718530339742
-0.0009748510479465801,-0.00020605395801513894,0.00017207734755617836
0.0007337775442340538,-0.0002865506251025981,0.00011110464145998678
0.0028691356368345535,-0.0003702412084493128,3.2244179511245636e-05
0.005432028717804161,-0.0004557485352993402,-6.467400818603342e-05
0.008410594093283395,-0.0005414932566918109,-0.00017944441719961726
0.01178012448253704,-0.0006256775053636042,-0.0003114754752370139
0.015502023184271265,-0.000706341593155583,-0.00045974358745553125
0.019526119209357297,-0.0007813352591843775,-0.0006228368976988366
0.02378848148490143,-0.0008485015027368337,-0.0007988683801002612
0.028219017960959845,-0.0009055196060178889,-0.0009856607079656173
0.032732590739564284,-0.0009504120068155222,-0.0011804834659406886
0.037251566903436825,-0.0009808440043007217,-0.0013806345362507761
0.04167211148088164,-0.000995617864253286,-0.0015825464610512746
0.045932455109475814,-0.000992165921767466,-0.0017835389346589998
0.04989756646172161,-0.0009712408069022877,-0.001978910407304668
0.05357222745304514,-0.0009286462804655202,-0.002167245164136959
0.05673137095624965,-0.0008699714361715188,-0.002341390931095184
0.059579096068856086,-0.000784519569241982,-0.0025042802195476667
0.06160433639460481,-0.0006908536771136036,-0.002641943644230855
0.06356984936085468,-0.0005574798925704665,-0.002769555233263109
0.06408755671309303,-0.00043969781058859805,-0.002853660802013898
0.06546286787408354,-0.0002454334370472557,-0.0029423819055098967
0.06378268549719146,-0.00013317811018828037,-0.002949165523426115
0.06556985705992344,0.00015812756652075458,-0.0030087187806314636
0.06000585976244119,0.00018917201189028488,-0.002896474167759918
0.06486875039473596,0.0006760568337847592,-0.002967175924484159
0.0511747859152998,0.0004402346122063389,-0.0026509224747207857
0.0657911136987612,0.001379824960609233,-0.0028366479818238556
0.03356515146318288,0.00043216462935858724,-0.0020986692492663394
0.07400630832288213,0.002434707492777592,-0.0024596638725148472
0.0,0.0,0.0
0.0,0.0,0.0
-0.0017952652891398602,0.00026852873628242915,9.336162448005032e-05
-0.002666484416152149,0.0002594633518407965,0.00015654462022426268
-0.003389277145562139,0.00022946159992261991,0.00020697468798157502
-0.003927979583313488,0.00018749383432356003,0.00024754132719441684
-0.0042277991544532306,0.00013470706127808257,0.0002769412639506087
-0.004235857879383293,7.183539870594018e-05,0.00029316067402123644
-0.003902664339945617,-3.582789697494775e-07,0.0002942535724947585
-0.003183457551349793,-8.101203571888986e-05,0.00027850549240885736
-0.0020398043528553206,-0.00016913701886564768,0.00024448150435056896
-0.0004414742951944333,-0.00026359374682156873,0.00019105851106423412
0.0016317641670340734,-0.0003630609457107833,0.0001174517275375178
0.004188274366808841,-0.00046601294420512606,2.3248023697951155e-05
0.007223394630821963,-0.0005706893447069627,-9.157404141514479e-05
0.01071802347729019,-0.0006751054528113196,-0.00022660560201310403
0.014639128630313766,-0.0007770318148001612,-0.0003810148093127061
0.0189385957691941,-0.0008740824491825069,-0.0005534943513903935
0.02355704670437574,-0.0009636590547393548,-0.0007423432585552424
0.028420301648613543,-0.001043216814169173,-0.0009453394078989278
0.033450484681043176,-0.001109998780530934,-0.0011600166072080096
0.03855171540597226,-0.0011617757553779814,-0.0013832590901073404
0.04364270212608074,-0.0011957691751386696,-0.001612141248581602
0.04860568604955967,-0.0012108329396177389,-0.0018425975497533675
0.05338473749031171,-0.0012037627343566126,-0.0020719168346768897
0.057817844993783986,-0.001176058477318519,-0.0022945684740385084
0.061939236595555044,-0.0011221093519382882,-0.002509624058138213
0.06545710149854546,-0.0010499966848029367,-0.00270821260243798
0.06867079245948393,-0.0009451203415144878,-0.0028951758246919933
0.0708955363334198,-0.0008329879015452265,-0.003052567408030519
0.07316925337955282,-0.0006710922331975435,-0.003201137969911295
0.07364783961258194,-0.0005332198228113049,-0.003297807667568309
0.07537479474044666,-0.0002976404384930866,-0.0034051334938302955
0.07325605017010842,-0.00017086417288030665,-0.003413385219013204
0.07569763302478105,0.00018432300595740906,-0.0034921675224297705
0.06892067255059836,0.00020794689487463837,-0.003363028365970055
0.0753252562831282,0.0008039929871986241,-0.0034607043550609257
0.05878477212292857,0.0005019743678980815,-0.0030953245943110413
0.0771039633196768,0.0016463344127516408,-0.003328519027439161
0.038525808711252794,0.0004936049315313343,-0.0024728666033816083
0.08752856464804062,0.0028983754011791102,-0.002876704263847672
0.0,0.0,0.0
0.0,0.0,0.0
-0.0020741814233950734,0.0003263526482584192,0.00011163165555370106
-0.003012386648882228,0.00031475039319658405,0.00018606261087727744
-0.003770547324500513,0.0002770268878515752,0.0002444523071921405
-0.004308554442620513,0.00022443366663788195,0.0002906922337798069
-0.004562726369100469,0.00015850223308712583,0.00032341935812280715
-0.004472578607552758,8.024323296487149e-05,0.00034035124509043614
-0.003982771753636371,-9.295825797478347e-06,0.00033930265884693083
-0.0030447508834703955,-0.00010894347616185242,0.0003184018676344725
-0.0016185367752628464,-0.00021737368570925615,0.0002761452194472323
0.00032525389204078776,-0.00033308351772912896,0.00021142616013489573
0.0028036724505988105,-0.0004543608822867621,0.0001235519298913421
0.005819640365317263,-0.0005792667464655416,1.2269235999989218e-05
0.009361263313649284,-0.000705601943935381,-0.00012223228853842775
0.013400568122709062,-0.0008309338377676416,-0.00027928564529243954
0.017895021128264223,-0.0009525661153999122,-0.0004577809577379934
0.022786102486482492,-0.0010676699664783444,-0.0006561013873055455
0.028005241737465613,-0.001173180317921716,-0.00087225905834379
0.03346810523136626,-0.0012661749398176368,-0.001103704013807909
0.03909067945852529,-0.0013434394712507657,-0.0013477308113279654
0.04476690870560451,-0.0014025369154525562,-0.001600862780317407
0.05041548841275336,-0.001440182823049323,-0.001860051320151176
0.05590415874571601,-0.001455393852126551,-0.002120731563858914
0.06118980000854822,-0.0014441373320219773,-0.0023803305543300722
0.06607800303618828,-0.0014089484519679903,-0.002632371602823912
0.07064646612311883,-0.001342290957747685,-0.0028767122554329274
0.07451769336377503,-0.0012555234396408868,-0.003102353353588475
0.07811774632204893,-0.0011288749808391575,-0.0033166599313896785
0.08053772800993746,-0.000996815505692434,-0.0034966914634857933
0.0831665618749935,-0.0008027209804746698,-0.00367015433744927
0.08358447248130482,-0.0006436916800289789,-0.0037821288520423486
0.08575213964506799,-0.0003610125736237365,-0.003912612628211029
0.0831245219537184,-0.00022020960116132574,-0.0039241899913345655
0.08639038475469549,0.00020845892482878846,-0.0040274400846120224
0.07822715645802875,0.00022044425502331646,-0.003881413095605109
0.08649941618952153,0.000942222370174894,-0.004012155909699397
0.06673947880043858,0.0005620437013473455,-0.0035944696158538183
0.08937248745494666,0.0019399104171986727,-0.0038815961582411365
0.043706713370672536,0.0005553089198382385,-0.0028973882728817635
0.1023675740294674,0.0034100545032911492,-0.003340245978105008
0.0,0.0,0.0
0.0,0.0,0.0
-0.002378902049318165,0.0003933932393009964,0.00013284418787307966
-0.003373378392067868,0.00037860094445245514,0.0002201612040726536
-0.004151189575148325,0.00033147129769049726,0.00028744471481424657
-0.0046679700610461694,0.0002660206868628047,0.00033985749660194787
-0.004850654790318391,0.0001843002899559121,0.00037603825024727866
-0.004631154641252329,8.770999642773595e-05,0.00039344391163409107
-0.003948852039631631,-2.2308520914961405e-05,0.000389663004078624
-0.002752516218775394,-0.00014416933670049535,0.0003626989310344976
-0.0010021906670319334,-0.00027611244506959496,0.00031103056259009816
0.0013287557844358742,-0.00041618671721239324,0.00023363375771490126
0.004252144514341347,-0.0005622175346955722,0.00012998088628648696
0.007763387657605452,-0.0007117968281861941,5.324388941114984e-08
0.011841546454453603,-0.000862243911155782,-0.0001556817709369773
0.016448234986430207,-0.001010653847350988,-0.00033624223950435265
0.02153053433443871,-0.0011538473435594122,-0.0005402056476701228
0.02701895055356355,-0.0012885604169571123,-0.0007656245468125911
0.03283627354169306,-0.001411261646798802,-0.0010102385481153945
0.03888846614869897,-0.0015186886395512564,-0.0012711866607726455
0.045087771772335895,-0.0016071577383383042,-0.0015455949243729796
0.05131866301564981,-0.0016740965578593847,-0.0018296582890305225
0.05750452175893531,-0.0017156383725428581,-0.002120336032762075
0.0634975243762272,-0.001731112633531663,-0.0024125593924872028
0.06927619378266466,-0.0017154033592902533,-0.002704108834233112
0.07460657190149868,-0.0016724406580499284,-0.002987415740832234
0.07962761686153727,-0.0015920918026516061,-0.0032634976467579915
0.08385258771273703,-0.0014899445814346784,-0.0035187360595291374
0.0878730445059153,-0.0013394592951646782,-0.00376375642226366
0.09049475267064831,-0.001186481729147721,-0.0039694365385816235
0.09354769367902424,-0.0009565308780194307,-0.004172018293898252
0.09389508006980103,-0.0007756755428208657,-0.0043022525127686265
0.09662097811200764,-0.00043970404851893585,-0.004460881653511831
0.09342052943718748,-0.0002856878592204257,-0.004477958034642466
0.09771268041029792,0.00022706080920710815,-0.004611434830123233
0.08798448790279412,0.00022294867299585218,-0.004449035850939393
0.09848341618624559,0.001088735466629854,-0.004619451563588672
0.0751089754256575,0.0006182366579874206,-0.004147181387338512
0.10269828853671907,0.0022607441009444692,-0.004494780690824165
0.049165464934634036,0.0006169521156539161,-0.00337224897134626
0.11862044956615886,0.003972738995979322,-0.003847952937841469
0.0,0.0,0.0
0.0,0.0,0.0
-0.002705280482521196,0.00047034485075393907,0.00015793403418684886
-0.0037379998802431276,0.0004516077046298771,0.0002604176517428061
-0.004513166027970968,0.0003931907349397277,0.00033797416751201175
-0.004983029914856835,0.00031241095127305463,0.00039734810911112357
-0.005065032495546657,0.00021199315139984226,0.00043725871210501574
-0.004683682215648905,9.385490427408374e-05,0.00045492797607737023
-0.0037736877421367483,-4.0042158768632485e-05,0.0004477585510317241
-0.0022821721072604517,-0.00018757572440007808,0.0004136973311592727
-0.0001705999743108568,-0.00034643844935801946,0.000351295948326836
0.002583204971163979,-0.0005141327351533248,0.0002597150013845438
0.00598401005633668,-0.0006879409207236145,0.00013869402358185806
0.010017864719435427,-0.0008649289335331767,-1.1456725640728095e-05
0.014653227612098163,-0.0010418969856353228,-0.00018991706609532028
0.019839988837945546,-0.001215457325729871,-0.0003953335620072641
0.025514284586490635,-0.0013819481116824322,-0.0006259468313937352
0.03159528805550364,-0.0015377026550627729,-0.0008794710723593256
0.03799809054163512,-0.0016787423403720738,-0.001153410464287714
0.04461945135204661,-0.0018015313526823888,-0.001444627483493286
0.05137076261434567,-0.001901911281804391,-0.001750181738819043
0.058127378444834635,-0.00197727832593384,-0.002065985997485944
0.06482284081025853,-0.002023084384248714,-0.0023891795879528808
0.07129151005043914,-0.00203916715577147,-0.0027141856990435293
0.0775440635123838,-0.002018994372243665,-0.0030394144738420167
0.0832972244604554,-0.001968337788466733,-0.003356034716739899
0.08877298420319985,-0.0018736121733459736,-0.0036666945148117525
0.09334625048418811,-0.0017557823950859557,-0.003954588159770528
0.097821079438322,-0.001579576669530872,-0.004234481109856394
0.10064501154537155,-0.001405076445926588,-0.004469712909410524
0.1041947911623385,-0.0011355389130382075,-0.004706833848519397
0.10445318822425549,-0.0009325512191647092,-0.004859495423875781
0.10786243629518201,-0.0005367219942986146,-0.005052714103246779
0.10401172610898389,-0.0003707574467104526,-0.005078828139537033
0.10954534595920662,0.00023732170607533272,-0.005249706078317207
0.09805638272824273,0.00021201411443719077,-0.005072734778555704
0.11116344642107497,0.0012409615450912357,-0.0052903234903236744
0.08376478958677666,0.0006672244332586943,-0.0047620884678736776
0.11698608524481041,0.0026063999944542626,-0.00517629936650674
0.05480778511665892,0.0006757788801092818,-0.0039051758024288476
0.1362186578333,0.004583285516283688,-0.0044042979993998265
0.0,0.0,0.0
0.0,0.0,0.0
-0.0030708880086148644,0.0005594626883068304,0.00018717164953837583
-0.0041332093025980635,0.0005357869715542136,0.00030718108299636397
-0.0048908077288933646,0.0004636762724754675,0.00039637512969386575
-0.005293181758805283,0.0003644499294885,0.0004634776944270733
-0.005248069657246179,0.00024174278475347236,0.0005074102878598459
-0.004673057064357525,9.81903474557684e-05,0.0005252008079216712
-0.003499377896585209,-6.354127082668563e-05,0.000514107514961052
-0.0016743261125170459,-0.00024063168443334588,0.00047208387958309276
0.0008370027702507166,-0.0004300941917963877,0.0003978369976405621
0.00404992766193806,-0.0006287879936761026,0.0002908077915402291
0.007959878859995294,-0.0008333885970087707,0.00015109953024809375
0.012541480875839109,-0.0010404072652574212,-2.0557374390755194e-05
0.017751134661199534,-0.00124612013565482,-0.00022291863686435488
0.023525965788929404,-0.001446683070460657,-0.0004542051506008018
0.029791140717781103,-0.0016379844100801832,-0.0007123029096766703
0.03645458896110436,-0.00181602372769921,-0.0009945834647469521
0.043425353623545555,-0.0019764178820133402,-0.0012983637273797808
0.05059174608508235,-0.0021154598896025814,-0.0016202653213696235
0.05786802830493478,-0.0022285164045702196,-0.0019573997122571477
0.06512053836798282,-0.0023130946948418875,-0.002305435480176143
0.07229962325099197,-0.002363838561135938,-0.002661888059433834
0.07921834180492796,-0.002381348037554654,-0.003020641104548804
0.08593228130512322,-0.0023572531703354264,-0.003381053596637112
0.092096266173723,-0.0022997212202465773,-0.0037328055959098064
0.09804199919130657,-0.002190646356227583,-0.004080729165251102
0.10297106903446995,-0.0020577312025452372,-0.004404162931235433
0.10795644710480576,-0.0018545856834877763,-0.0047230300812997495
0.11100221716653373,-0.0016588328897260132,-0.004991606216214886
0.11515393972417809,-0.0013463162123408523,-0.005268720505371953
0.11532718386224822,-0.0011215499819441992,-0.005447929356228682
0.119584413800508,-0.0006590425116493713,-0.005682286831282612
0.11502435720549267,-0.0004826721969903474,-0.005721052240761671
0.12205440254636596,0.00023306521659677667,-0.0059366993689930585
0.10861418707836011,0.00018173243505986984,-0.00574736059479155
0.12474169182603587,0.0013950182959460162,-0.006019962317942923
0.09289227574798903,0.0007059614254131796,-0.005435408500185147
0.13243637370859565,0.0029767935302455217,-0.005922571873967561
0.06078048419570704,0.0007322154855407427,-0.004493951944541219
0.1553336044453732,0.005247022150343643,-0.0050050973294154056
0.0,0.0,0.0
0.0,0.0,0.0
-0.0034644980283301528,0.0006612696126534265,0.0002225002913405497
-0.004533898679291195,0.0006315658483059811,0.00036378809426216224
-0.00524753134443789,0.0005432128209036344,0.00046699966544830524
-0.005554184265249001,0.0004222686357768431,0.0005432801982496679
-0.0053524107848027394,0.0002735203607820665,0.0005918938483458478
-0.004553493014982902,0.00010052336951253046,0.0006097490247555245
-0.003086002721238397,-9.316232578418881e-05,0.0005940594208962876
-0.0008984647256148383,-0.00030384591330655117,0.00054292354433115
0.0020391439977045416,-0.0005277137199388125,0.00045536483284468383
0.0057338582544822145,-0.0007608693059447669,0.0003312688773711558
0.010170399425088003,-0.0009993051828171271,0.0001712493860134709
0.015310633912385857,-0.0012389462248891835,-2.3421853940984986e-05
0.021098074598367142,-0.0014755439465296038,-0.000250996572224038
0.027456432910017262,-0.0017048408748690002,-0.0005092211017336854
0.03430028012523976,-0.0019223258242933592,-0.0007956295672597415
0.04152643317064783,-0.00212376301630399,-0.001107268094323227
0.049039772080593604,-0.0023044239130809,-0.0014413478210466167
0.05672046406242007,-0.0024605672261299068,-0.0017943059365300585
0.06448958707241971,-0.002587081538673304,-0.0021634636534645464
0.07220339895734916,-0.0026817669173346,-0.002544292991996118
0.07983625467712441,-0.002738290506951945,-0.0029349311784607644
0.08717403164724584,-0.0027583331960180997,-0.0033286810979175326
0.0943316703512946,-0.002731159768668581,-0.0037262434858946953
0.10088531895581945,-0.002668013845175062,-0.0041155480477621294
0.10730776271478855,-0.0025449709228477038,-0.004504283335530449
0.11258521333476791,-0.002398083140000641,-0.004867187179377626
0.11812594011381715,-0.0021670222865705115,-0.0052305247926893355
0.12139252051204204,-0.00195076449943975,-0.005537831565485906
0.12623904958218582,-0.0015918663049477942,-0.005862364914334876
0.12630499947444318,-0.0013461091662826472,-0.006074356038069734
0.13156404491186555,-0.0008098536136363126,-0.006358771450474092
0.12620610993622863,-0.0006251597572264517,-0.006416182646525027
0.1349828203629986,0.00021088103354303185,-0.006686247300015861
0.11937522069739841,0.00012789179725936601,-0.00648886455954269
0.13894515596412402,0.0015468623362902304,-0.0068257119944005705
0.10221107557661198,0.0007294732510326861,-0.0061854644825068295
0.1487980722165327,0.0033665956729710847,-0.006751321671262238
0.0668706619806163,0.0007811217117781252,-0.005154046043208938
0.1757625464760302,0.005955348710949022,-0.005662001223547894
0.0,0.0,0.0
0.0,0.0,0.0
-0.003929543409523335,0.0007803013993336864,0.00026393334159486903
-0.005011256674840079,0.0007430346150329738,0.0004300450625763106
-0.005677297928419918,0.0006348875789710033,0.0005493786382014984
-0.005876710179096577,0.0004877345196594006,0.000636092296687391
-0.005498862277530021,0.0003079343797061092,0.0006900080405963273
-0.00444977806157468,0.00010031379547192422,0.0007080065537612098
-0.0026573739422814865,-0.00013037171586660452,0.0006873379298816617
-7.410537192765501e-05,-0.0003793258853617004,0.0006263465411496564
0.0033222338978491483,-0.0006417477359949632,0.000524489467392479
0.007527534084669574,-0.0009129022138497649,0.0003822221825104011
0.01251350283382972,-0.0011880781047052442,0.00020078470397131215
0.01822746303675917,-0.0014626520487590557,-1.7907834542618777e-05
0.024599312326787498,-0.0017319182959912116,-0.0002715360060017682
0.031539045250103086,-0.00199131510013919,-0.000557326152233285
0.038951770218259865,-0.0022360305923810444,-0.0008724679824754558
0.046723861647276946,-0.0024617413478065227,-0.001213693925868762
0.05475885975731778,-0.0026634552979853407,-0.0015781942664694379
0.06292922933625178,-0.0028375754938428054,-0.001962262271792446
0.07116785806188689,-0.00297850348324787,-0.002363592458434142
0.07931924313795172,-0.0030845623964037357,-0.002777475236156056
0.08739049540110504,-0.003148227168475787,-0.0032029286611004316
0.09513250185399906,-0.0031726607996115223,-0.0036325746564348886
0.10273685063608186,-0.003144121143238511,-0.004068882849159233
0.10968032222350133,-0.003077761443242161,-0.004497681632393476
0.11661418224464656,-0.0029422872358283434,-0.0049302695737398275
0.1222602396550199,-0.0027839720627706507,-0.005335919447366582
0.12843966911040752,-0.0025252331755475587,-0.005748566132232649
0.13196242782423337,-0.0022906692358193696,-0.006099178958605161
0.13764848047820888,-0.0018828465545306023,-0.006477782983840571
0.13762891304756156,-0.0016179440491683665,-0.006727911035984288
0.1441050202751406,-0.00100088145997092,-0.007070506523161623
0.13790308664197995,-0.0008101339926501541,-0.007151832145898211
0.14873504737319065,0.00016018928756920516,-0.007485390025392722
0.1307681785182288,4.1046584999210694e-05,-0.007284180076613504
0.15423906086757247,0.0016901057140347195,-0.00769460593913303
0.11216931280671602,0.0007338210650516257,-0.00700038755062584
0.16652261455924758,0.0037769638069571733,-0.007651513334343549
0.07342798366361612,0.0008250948861535479,-0.005876696828667043
0.19789099469214286,0.006721090195803627,-0.006365439002523966
0.0,0.0,0.0
0.0,0.0,0.0
-0.004433481601743195,0.0009161877674366923,0.0003154957721327762
-0.005500269986133671,0.0008697934329674657,0.0005129080132619691
-0.006089047925526923,0.0007383954560231465,0.0006526168457645695
-0.006153046605545824,0.0005607122887385126,0.0007524203734361843
-0.005573813898643694,0.00034504514595479625,0.0008129323478960828
-0.004252971870936294,9.779206920576479e-05,0.0008311754469826436
-0.002118273331016044,-0.00017482985006528302,0.0008046576592723585
0.0008735520908780862,-0.00046669393287394954,0.0007322454234375568
0.0047366402225554214,-0.0007718365526275451,0.0006141206047328113
0.009455380877391112,-0.0010845724276459532,0.0004515788579831702
0.014988263725775613,-0.0013994335979197082,0.0002467020274169368
0.021267744396762486,-0.001711265425595922,2.20566173331842e-06
0.028210380333529624,-0.0020149608850153133,-0.00027893982369518115
0.035712507363554497,-0.0023057716332053973,-0.0005934075053284025
0.04367113549071942,-0.0025786925702063553,-0.000938087022302763
0.05196240456122959,-0.0028294884772647085,-0.0013094450708634017
0.06049117249614783,-0.003052991673407174,-0.0017047892274185282
0.06912136171884904,-0.0032459650451429935,-0.0021203406905319477
0.07780246849124131,-0.0034022944200882994,-0.0025543901262104923
0.08636330702705185,-0.0035211031798704517,-0.003002076148787795
0.09485283037636341,-0.0035933903966704804,-0.0034636290848845414
0.10297534117583329,-0.003624287722550893,-0.003930881340321367
0.11101802729016007,-0.003596267887054941,-0.004408599407355144
0.11833155954835811,-0.0035294007503166554,-0.004880125039343114
0.12578809280311617,-0.0033832109594443952,-0.00536127155765697
0.13178719355557122,-0.003216378582869937,-0.005814919642283729
0.13865161092463268,-0.0029302861546957313,-0.0062841987245368484
0.1424142267361422,-0.0026799759425266733,-0.006685571237872189
0.14903722872906,-0.0022206069630448604,-0.007128341746262924
0.14889058458502355,-0.0019388152592046469,-0.007425776873211245
0.1567485752672444,-0.001233792982767538,-0.00783887803666473
0.14959066761525822,-0.001040025681422706,-0.007953719773657678
0.1627460013434171,7.824985588819754e-05,-0.008364024893274351
0.14217806709503872,-8.304509943108965e-05,-0.008166946983589206
0.16999957148224545,0.001819337158192692,-0.00866299995411076
0.12213990355111695,0.0007114910375233767,-0.007917671732647893
0.18502226948327008,0.004197701910226155,-0.008659998680653978
0.07996681130401623,0.0008540445278942024,-0.006693195285286367
0.22123572882884304,0.007524494244715942,-0.007141726560509912
0.0,0.0,0.0
0.0,0.0,0.0
-0.0050765752403053015,0.0010784516134967348,0.000376081993923631
-0.00616906873891243,0.0010204369658971843,0.0006100234196255132
-0.006706210880549627,0.0008602027761083621,0.0007731847806748219
-0.0066460794369571806,0.000645097409399969,0.000887908663388003
-0.00586227608233189,0.0003861455873625009,0.0009559722715463086
-0.004253873141618662,9.195074979004429e-05,0.000974719356932756
-0.001751902246350905,-0.00022931309161530164,0.0009420584077792492
0.0016782697733563887,-0.0005698625306100951,0.0008575299871789177
0.006038368897287943,-0.0009224122675433646,0.0007221992906632856
0.011297473396108842,-0.001280318598394033,0.0005383597629867781
0.017398327274089895,-0.001637449181208354,0.0003090686698863099
0.024256919572533415,-0.0019882919230465247,3.795305377306751e-05
0.03177657394818929,-0.0023275296725099436,-0.00027130771615237653
0.039840337208083804,-0.0026504607266174384,-0.000614797103560384
0.04833954010736074,-0.0029520668331798833,-0.0009891420668774811
0.05714102933015603,-0.003228442482008949,-0.001390564733192994
0.06615508442994474,-0.00347435013737895,-0.0018166138816450494
0.07523649268936723,-0.0036871758555638142,-0.002263465957368603
0.08435786615377527,-0.003860238758528324,-0.0027302186083502395
0.09332776935290485,-0.003993801306419897,-0.0032118219643728673
0.10224862259212739,-0.004077032842721593,-0.0037100490745856935
0.11076439477115023,-0.00411763135114653,-0.004215736335872061
0.11928090392670744,-0.004093366183921998,-0.004736496675290305
0.12699133495780113,-0.004030433504435905,-0.0052526670425906
0.13503845047255722,-0.003877084637979675,-0.005785550275069039
0.14143388589435535,-0.0037068972244567945,-0.006290557152032713
0.14910328245870105,-0.00339589049464543,-0.006821679500663325
0.15316463889649043,-0.0031348040603272286,-0.0072787904735839995
0.16091692400046734,-0.002623063607740151,-0.0077931957877904
0.1606930955300395,-0.002328454947513866,-0.008144248588618126
0.1702086484149956,-0.0015288493174678475,-0.00863734938853697
0.16207639205169222,-0.0013352578770289803,-0.008792593402725795
0.17792780961508248,-5.344557676772466e-05,-0.00929061321636779
0.15457917639287214,-0.0002603317565175747,-0.009104101866944244
0.18726272949079825,0.0019241012396309454,-0.009697393193349405
0.13313432299327643,0.0006572891495022451,-0.008904926337314462
0.20530587614391005,0.004633924443608946,-0.009746628089573493
0.08727670299455455,0.0008756551791571976,-0.007578343263033429
0.24667117520384232,0.00839612282481847,-0.00796718935619632
0.0,0.0,0.0
0.0,0.0,0.0
-0.005767453384133549,0.0012635395698280228,0.00045412555283243163
-0.0068449950588075625,0.0011916205591580155,0.0007360006788958071
-0.007291305823954289,0.0009978066924286463,0.0009301626928755631
-0.007076482185286006,0.0007395310565966759,0.0010643958444939167
-0.00606868093407097,0.0004311007153269414,0.0011420429640102208
-0.004164978643270759,8.37515284407305e-05,0.0011611570934462222
-0.001298686921464303,-0.00029203612127847855,0.0011205496899476465
0.0025579981000524847,-0.0006865527118172227,0.0010210110109015612
0.007396540734463642,-0.0010910040728822287,0.000865044239009262
0.01317249944949447,-0.0014977001881157465,0.0006564083563946581
0.01981458504873543,-0.0018998376229594496,0.00039946783536193124
0.027223266820926028,-0.002291639375040563,9.8970361753488e-05
0.03529007436453202,-0.002667708880266271,-0.0002406241041162031
0.04388511524728851,-0.003023604108618594,-0.0006148052402664135
0.052896116550026906,-0.003354458623964323,-0.0010200466668763078
0.062180108477737604,-0.0036569590001957466,-0.0014524165478452629
0.07165598609255762,-0.00392589192638567,-0.0019099226731999275
0.08116628629620116,-0.004159569038007673,-0.0023887845197074127
0.0907124449329072,-0.004350650087514399,-0.002889219024733493
0.10007458474452231,-0.004500933380142971,-0.003405991275290533
0.10942032094350816,-0.004597305156771852,-0.003942869253546167
0.11831420141981559,-0.004650735254922495,-0.0044895028978135625
0.12730535990532874,-0.004633200038444889,-0.005057059011520624
0.13538999097097143,-0.004578453741650418,-0.005622339278826536
0.14403612554644168,-0.004421104545731273,-0.006213323168903617
0.15079075438082384,-0.004252504633218593,-0.006776835397561131
0.15929513983173438,-0.003918527262652653,-0.007379660945627392
0.16360041533286773,-0.0036514808238284485,-0.007902910530483913
0.1725572138249766,-0.0030860812335130224,-0.008502840411085788
0.17216694664671048,-0.002782934218906488,-0.008921009060935545
0.18348601469009312,-0.001882174009015842,-0.009511588048629066
0.17421718769861294,-0.0016932634338193361,-0.009722370144666126
0.19302569902265415,-0.0002338440550195555,-0.010327312673989437
0.166608970351072,-0.0004931573462809034,-0.010164922190497071
0.2046234709687764,0.00199804386595928,-0.010872795222991631
0.1437438503728598,0.0005594696806649301,-0.010038892245690682
0.22603227854204377,0.005065911395607141,-0.010987620753822544
0.0942541895381573,0.0008693590836401975,-0.008596562074010342
0.2730778456111073,0.009291273466760029,-0.008898476854555193
0.0,0.0,0.0
0.0,0.0,0.0
-0.006731319003438963,0.0014917380120081486,0.0005451512956985271
-0.00790930221104343,0.001401536904288891,0.0008821866971044163
-0.008350418925993624,0.00116459921529327,0.0011112781628852464
-0.00803539159293652,0.0008516598523626635,0.0012670971790679968
-0.006826113837875699,0.0004818626152073093,0.001355216858679237
-0.004621373000598362,7.027652831190516e-05,0.0013747459023831662
-0.001363726020380598,-0.0003694844219106047,0.0013256448553785156
0.0029593363106804847,-0.0008253680237233906,0.0012101740212773335
0.008321120655493088,-0.0012870114110804796,0.0010324766546361865
0.014657266054637035,-0.0017458912416537325,0.0007979647250120922
0.0218787490481776,-0.0021948836665743577,0.0005124557145776328
0.029868514181833,-0.002628380706829202,0.00018193552401477925
0.03850710099993532,-0.003041302505931357,-0.00018831185615502874
0.0476524426499339,-0.003429880917670448,-0.0005931533387139056
0.05719250431176812,-0.0037896761751050685,-0.0010289812000427183
0.06697535235576559,-0.0041183168952562965,-0.0014917316255357994
0.07693429241577182,-0.004410716933594954,-0.0019800398501981795
0.08689741748569824,-0.004666471320028726,-0.002490164735609498
0.09690385193330459,-0.004877445138962074,-0.0030237112506360277
0.1066970417873319,-0.005047451213324601,-0.0035751459111296913
0.11652599550431875,-0.005160545022949144,-0.004150658529507413
0.1258551527045104,-0.005231820985080452,-0.004738369473058007
0.13540803363091902,-0.005226204510133796,-0.005353710211890726
0.14393974591615422,-0.0051866967093348705,-0.00596921816658706
0.15330762302256198,-0.005031585381530441,-0.006620792073028514
0.16050880008274956,-0.004873230341429126,-0.007245328714035735
0.17002727779146423,-0.004521975864788312,-0.007924492549220808
0.17468115014467858,-0.0042579670918801256,-0.008518251470104172
0.18510695636145505,-0.0036411830824245733,-0.009211074458751072
0.18465479131013246,-0.003337153346037227,-0.009702714701996832
0.198143744495682,-0.002330258764314122,-0.010401066131477316
0.1877787999707386,-0.002150950861505248,-0.01067531356452345
0.21001676402417552,-0.0004968265736432819,-0.011400234602821574
0.18038830999510913,-0.0008103961294449633,-0.01127054718247397
0.22433164436576875,0.0020229086236280376,-0.01210831066421361
0.15618011396102446,0.00041049445934320574,-0.011239576405060323
0.2494114701769765,0.005507833648918627,-0.012307692848734822
0.10263916246027564,0.0008540437141442456,-0.009684139938634609
0.30239363280412,0.010279621225659582,-0.009877838683734385
0.0,0.0,0.0
0.0,0.0,0.0
-0.007726798370207341,0.001750181298224941,0.0006671883463929118
-0.008919661865304232,0.0016382568347194184,0.0010798289140117735
-0.00928214011249941,0.001351619199434207,0.0013571406493694948
-0.008818942495399834,0.000976366550025931,0.0015420003280302067
-0.0073898496087921655,0.0005373111538190492,0.0016429941834467366
-0.004894128433524723,5.392263041898259e-05,0.001661236165519239
-0.0012783051569594075,-0.0004566450377082876,0.001599020743738714
0.0034618931670073664,-0.0009797214010989796,0.0014613193359637878
0.009288840499093242,-0.0015032087431701003,0.0012550019652480128
0.01612391875865878,-0.0020177163047363396,0.0009879558616967359
0.02386487513256685,-0.0025158625074904366,0.0006679598437347606
0.03237931255696919,-0.0029924032157912766,0.00030249855577045543
0.0415390404168977,-0.003442794574788323,-0.0001022944186615321
0.05118951212540841,-0.0038642707972644428,-0.0005407310565237281
0.06122111536314966,-0.004253034733834047,-0.0010093469105598146
0.07147053136758498,-0.00460801586658055,-0.0015041114566028337
0.08188902620664137,-0.00492432368541547,-0.0020246278254921956
0.09228364768834182,-0.005203239315956532,-0.002567312889980926
0.10273827599880046,-0.005435630672528646,-0.003135605680127894
0.11294584710288241,-0.005627879948806295,-0.00372365578233701
0.12325255446337727,-0.005760529036598047,-0.004340709814485173
0.1329946355711543,-0.005853786135900268,-0.004973086487799654
0.14310264611772258,-0.005864050603007717,-0.0056414559806338615
0.15203573018121172,-0.005845533407601411,-0.006313398881618084
0.16210928061369567,-0.00569722042453051,-0.007034315147455262
0.16967084010127276,-0.005556197901694456,-0.007729821239104901
0.18018584021445436,-0.005191463171448382,-0.008498976285821351
0.18505588946846258,-0.0049380400864045305,-0.009178107660409815
0.19696084716007944,-0.004270572918398867,-0.009983611646028602
0.19625980098904022,-0.003972859963386117,-0.01056897739680047
0.21199699987844386,-0.0028548418890405568,-0.01140107002233012
0.20026883689167724,-0.002692401956476814,-0.011762898561552567
0.22614946370661443,-0.0008302512771593366,-0.01263758305612915
0.19292755406064535,-0.0012074967181683782,-0.012563518495206776
0.24327859493541984,0.001993044792382649,-0.01355881313779559
0.16732016488499682,0.00019172337359431258,-0.012665554569864528
0.2724342582665521,0.0059205626224827675,-0.013865436946098021
0.1099602222887531,0.0007872465773656119,-0.01097580312715122
0.3320583137357094,0.011260422225826027,-0.01102595752262541
0.0,0.0,0.0
0.0,0.0,0.0
-0.00925745783684297,0.002082588695503648,0.0008068770641642692
-0.010732448044176824,0.0019405346621755662,0.0013039623999827206
-0.011218814428733037,0.0015864308793423526,0.001633185035578194
-0.010737776974116183,0.00112803142388637,0.0018480865510866838
-0.009145188613823973,0.0005991205594054884,0.0019615439583172767
-0.006350150057261137,2.5938590174345112e-05,0.0019773624373372006
-0.0023196964456912487,-0.0005694561784122259,0.0019005744275237726
0.0029232940481623525,-0.0011693886723839963,0.0017391334332868828
0.0093136535534394,-0.0017603690302572033,0.0015028352969830821
0.016745989685347063,-0.0023329270728326738,0.0012022145562203778
0.025098117415587165,-0.002880335329002534,0.0008471335930760437
0.03421903645419715,-0.0033986301197043278,0.00044667801966958486
0.04397337625315648,-0.0038845280522478453,7.8425399668114e-06
0.05419524129332814,-0.004336930073862604,-0.0004631137441585083
0.06478328131186564,-0.00475305393241054,-0.0009629856127300367
0.0755634896976065,-0.005133595743373445,-0.001487792236082551
0.08651358268634175,-0.005473916938209588,-0.002038325883807502
0.09741554923192915,-0.005777448100526648,-0.0026111095603002458
0.10841084832496643,-0.006033787742360169,-0.0032117576798878908
0.11912949108747674,-0.006252554957530462,-0.0038338851565890408
0.13003825002487357,-0.006409976815572965,-0.004490354673154899
0.14031688732593658,-0.006532566816033437,-0.005165167546823279
0.15114593195098908,-0.006566520245615526,-0.005885176187773975
0.16063003812034946,-0.006579553830333926,-0.00661199602161275
0.17162489025000074,-0.006448015737412614,-0.007402154360029786
0.17971964476373228,-0.006337882598687668,-0.008168235846051948
0.19151839137792437,-0.005970280235827611,-0.009029422769138876
0.19680579805823306,-0.005742571889478979,-0.009795450556499248
0.2105866110147211,-0.00503208956177881,-0.010718938255422458
0.20985582660269841,-0.004754520700878934,-0.011402198807702891
0.22837254909141594,-0.0035242711556896125,-0.012377653547063829
0.21544647391850438,-0.003387433528312462,-0.012834191350430537
