0.10975026096524969,-0.00017690453295579012,-0.006479213320318502
0.11953568606112841,0.0006587951961995876,-0.0066769170173061705
0.10370679176944812,0.0004875449305229488,-0.006443854801039339
0.12498668679343879,0.0018765091001577052,-0.0067032591163566115
0.08885722225794511,0.0009435104049458799,-0.006084457837989796
0.13676000731449048,0.003485700855145248,-0.006532328586076909
0.05801142645619626,0.0008362990003894841,-0.0050335153188283245
0.1646406322999294,0.0057405069858224534,-0.005277669791823441
0.0,0.0,0.0
0.0,0.0,0.0
0.002335602833834626,9.083682183217754e-05,7.843311631898817e-05
0.005467286340897623,3.4145614924838973e-05,0.00010636236550735313
0.00882511020538327,-7.494289267288817e-05,9.955238418194901e-05
0.012404938199300544,-0.00022062023726104326,6.799501658422469e-05
0.016230629070580305,-0.0003970234781433356,1.3150329091828835e-05
0.02031694679736034,-0.0005988521587604461,-6.64508859307525e-05
0.02466708478432378,-0.0008204782757724679,-0.00017253332683482537
0.029271742414190553,-0.001055940869386555,-0.0003062371342319601
0.03411026924084123,-0.0012990943365663006,-0.0004679611141446115
0.03915074721399215,-0.0015438653470774665,-0.0006573531740707712
0.044354067014967476,-0.0017843600889320937,-0.0008734514427191177
0.04967287375226642,-0.0020151489986901757,-0.0011147074448172396
0.055060307203808716,-0.0022311288245867736,-0.0013792538797779634
0.06046244244086604,-0.002427977830134564,-0.0016647699465587714
0.06583791755900371,-0.0026014847854695933,-0.0019689872128536463
0.07113065429298261,-0.002748685881886374,-0.0022890890061200986
0.07631985655889464,-0.0028658844530137203,-0.002622868295556253
0.08133936782907991,-0.0029518411089978877,-0.0029669433788716915
0.08621261056515724,-0.003002318884327416,-0.0033196990206354644
0.090829615298734,-0.0030189507136579377,-0.003676519928406319
0.09531103494803209,-0.0029945297436443676,-0.0040373799422364675
0.09941192696135549,-0.002936946194722703,-0.004394639050420521
0.10348550023742555,-0.002830233074078158,-0.004752276467247485
0.10692703335776735,-0.002697420793768868,-0.005095479924791598
0.11066271780344444,-0.002499718199626999,-0.005438092931311547
0.11318333771451299,-0.0022973814103608684,-0.005748777695189671
0.11681623191715053,-0.0019949602949642232,-0.006064883992658998
0.11785864070012075,-0.001742710722926177,-0.0063178801106720545
0.1219999353817425,-0.0013084735662962988,-0.006599152366500287
0.12035472542576467,-0.0010551666930738207,-0.006758079477958958
0.1264842639126248,-0.0004293586217832129,-0.007006042063453008
0.11953127609873442,-0.0002854892788166717,-0.007014872432851719
0.13106829124841968,0.0006668755601461806,-0.007254837303699178
0.1131931293245453,0.0004621557142961894,-0.0070213653307072766
0.13781623165120516,0.0020444655579377924,-0.0073281342349945065
0.09717416184765824,0.0009870980718427675,-0.006679013751750615
0.15166318089341305,0.0038641896842815477,-0.007172124488493817
0.06350995946990286,0.0008941690908929071,-0.005557718559251368
0.18328107017203,0.006393623041917973,-0.00573819415805233
0.0,0.0,0.0
0.0,0.0,0.0
0.002692095146189457,9.091720557030352e-05,9.610904967370917e-05
0.006244060245683521,2.5002525235118394e-05,0.0001334375330924749
0.010034947507613282,-0.0001001429010941108,0.00013027138012395803
0.014049820023497557,-0.0002663747457568092,9.882281664731022e-05
0.01830642392532472,-0.0004667352086135781,4.146343337242377e-05
0.0228142191391721,-0.0006950026856362612,-4.299639941545388e-05
0.027572110989915393,-0.0009446589407211188,-0.00015616733178736288
0.032567547988379984,-0.0012088876458015564,-0.0002990655625931727
0.037778088779080995,-0.0014807414807803951,-0.00047193022753305036
0.04317097546969875,-0.0017534520548322702,-0.0006742110096019657
0.04870796883073312,-0.0020205269003133303,-0.0009047518213487209
0.05434271928150312,-0.0022760987882636543,-0.0011618010117836982
0.060031582552101385,-0.002514693865452375,-0.0014433515825847147
0.06572205449319957,-0.0027318212242055983,-0.001746931569266104
0.07137827058173493,-0.0029230368409891953,-0.002070255040313924
0.07694355678227864,-0.0030854494648134075,-0.002410403685240253
0.08240617055002301,-0.003215075391201662,-0.0027653233945152318
0.08769289132375208,-0.00331102817536177,-0.0031314975414412985
0.09284459169847563,-0.0033684033838953433,-0.0035077043448352354
0.09772872466415489,-0.003389724214631159,-0.0038889648999638022
0.10250458833850255,-0.0033661290575371736,-0.004276057347930776
0.10686890695806178,-0.0033077035822056556,-0.004660361440063631
0.1112650210717553,-0.0031945753855370006,-0.0050474873285625815
0.11494916168859502,-0.0030551159877708705,-0.005420283403637803
0.11905734192828546,-0.002841609512680205,-0.005795963804005194
0.121761113060982,-0.0026269153194711787,-0.006138065333793169
0.12586396515108514,-0.0022956790501293596,-0.006490889403510216
0.12694984721925429,-0.002026877302483587,-0.006775322920846822
0.1317607130505851,-0.0015448221236150222,-0.007096816890297723
0.12985808859927156,-0.0012756835701153522,-0.007283867956988151
0.1370713476601416,-0.000572699918214228,-0.007575439507442416
0.1292362778490825,-0.0004257422422064611,-0.00760362737628069
0.1426998280002303,0.0006517081626089726,-0.00789092107176359
0.12266244917560182,0.00041088600810901575,-0.007659581083548599
0.1508990571007523,0.002200636798432574,-0.008018361377008662
0.10552187266426462,0.00101370325698167,-0.007338730056729943
0.1670015096396368,0.00424675937291997,-0.007878902493954006
0.06905097005336268,0.0009448787387519161,-0.0061378852173201446
0.2025567176717455,0.007067976039353838,-0.006241191312189802
0.0,0.0,0.0
0.0,0.0,0.0
0.003032054634154774,9.500003492574779e-05,0.00012097239353163826
0.007003866636578881,1.8820392324052747e-05,0.00017264745197955703
0.01122692720822625,-0.00012415987906820626,0.00017677934823119882
0.015673380012457442,-0.00031304969500927076,0.0001482277316195441
0.020353683898880866,-0.0005396267075467276,9.044740933572873e-05
0.025271282799158107,-0.0007966333309102764,2.596487021633085e-06
0.030420624032812583,-0.0010765723219992116,-0.00011677783986966338
0.0357861895110562,-0.0013717062299808014,-0.00026851757404282306
0.0413445359516062,-0.001674238608241063,-0.00045264644089966705
0.0470630557964017,-0.0019766852468512436,-0.0006683566086669767
0.052905747034788994,-0.0022719483671046832,-0.0009142494731182824
0.05882839649180818,-0.002553747086372914,-0.0011883261445047738
0.06479211059167382,-0.00281625777826377,-0.0014884190416903343
0.07074647287741521,-0.003054879755094534,-0.0018118804845067764
0.0766626918895059,-0.0032649554511472514,-0.00215641598281782
0.08248312040132287,-0.003443752843340212,-0.002518986721791892
0.0882070582858015,-0.003586977017518809,-0.002897728418447245
0.09375199521487454,-0.0036942207696754915,-0.0032889534327496407
0.0991797869092353,-0.0037597851230102407,-0.0036919056780624453
0.10432976780084303,-0.0037873024298620524,-0.004101159396055799
0.10940736959126587,-0.0037659253972638636,-0.0045184290747191
0.11403903719083844,-0.0037083746359802662,-0.0049339392111470174
0.11877425298993263,-0.0035901545954574467,-0.0053551692379824895
0.1227057936070427,-0.0034458948532813524,-0.005762293927610411
0.12721277240325293,-0.003217500728886326,-0.006176318100457152
0.13009940672623965,-0.002992302214294025,-0.006555059463977459
0.13471146206285767,-0.002632220865103062,-0.00695047534357216
0.13582734704701982,-0.002348627366596704,-0.007271878296451152
0.14136771812006885,-0.0018170261685745118,-0.007639908181328339
0.13917002107160764,-0.0015337652555216525,-0.007860614544728951
0.14756423758431525,-0.0007491471716632833,-0.008202271617710536
0.1387715951696998,-0.0006010343048676384,-0.008254854234366579
0.1543264674236484,0.0006101110287293693,-0.008595685800594704
0.13199202243011857,0.0003302660757653335,-0.008370147615834109
0.16411689453226064,0.0023419094074416474,-0.008786112198366287
0.11376949542473101,0.001019722408066641,-0.00807600547091635
0.18267467806837429,0.004630509744522623,-0.00866430908704805
0.07453078418668385,0.0009850839657481478,-0.006783619965660097
0.22241012505976157,0.007760216265095481,-0.006793983953147217
0.0,0.0,0.0
0.0,0.0,0.0
0.0033086950654181366,0.00010833340262772049,0.000153835109140382
0.007670267465245021,2.0583043717832525e-05,0.00022521143930952705
0.012299018841256554,-0.0001427549892355751,0.0002405265496172678
0.01715313364802129,-0.00035733881440670935,0.00021784222930267303
0.02223551668823897,-0.0006133969635155062,0.00016192581630875607
0.027543190800562976,-0.000902431198814406,7.237004505222658e-05
0.033065733564580764,-0.001215807690621122,-5.2079303713298564e-05
0.03878426022243766,-0.0015447599888048136,-0.0002120526296281293
0.04467420628688991,-0.0018805791070072582,-0.00040731838377698794
0.05070308637697452,-0.0022150529360434553,-0.0006367642211295094
0.05683760451090429,-0.002540494247816925,-0.000898708789197825
0.06303598044916185,-0.0028502662470804626,-0.001190861988967012
0.06926507078239062,-0.0031382462005571997,-0.0015108723175570465
0.07547666828086451,-0.0033998162664559727,-0.0018558823781576334
0.0816504900342893,-0.0036301413017247454,-0.002223592420359193
0.08772714062313852,-0.003826760211859236,-0.002610812066156318
0.09371917394431852,-0.003985040563992475,-0.0030159023762136947
0.09953211281272076,-0.004105203911242709,-0.003434957034581142
0.10525296529005529,-0.004180608071875011,-0.0038677641150710886
0.11068669148358701,-0.004216246125083543,-0.004308356341572316
0.11609357372038183,-0.004198907949921054,-0.004759530413386359
0.1210165794287858,-0.004144441964936682,-0.005210167618024186
0.12612937469372026,-0.004022929813309916,-0.005669873030339097
0.13033466523071957,-0.0038762619522435655,-0.006115799797170391
0.13529102298558263,-0.00363437616132082,-0.00657317902961417
0.13838360401645539,-0.003401066550450189,-0.006993509604920606
0.14357093771399437,-0.0030125020856582793,-0.007437110583397324
0.14472794511494932,-0.0027162961252147717,-0.007800747387946534
0.15108587027526757,-0.0021335684309005034,-0.008221343925573863
0.1485784076901835,-0.0018380157511258184,-0.008481015260065597
0.1582767060469084,-0.0009669798354244312,-0.008879004570633044
0.1484666254802216,-0.0008192496553916324,-0.008960950313830443
0.1662968086484609,0.0005353165458946395,-0.009361510394295095
0.1415300555321603,0.00021461072890328645,-0.009145724961545625
0.17782798756428464,0.002464905454453391,-0.009624454109562192
0.12224408691922461,0.0010032792429544213,-0.008884648575136144
0.1990180070438377,0.005017642099949108,-0.009522759582257175
0.08018737564210189,0.0010168981738193326,-0.007490245319205307
0.24314511329433372,0.00848089002620784,-0.007391461964282938
0.0,0.0,0.0
0.0,0.0,0.0
0.0035266580976161498,0.00013284165041514606,0.00019826550970038003
0.008259885681450694,3.2151180843937655e-05,0.0002972314259979748
0.013277415085503886,-0.00015416079325898758,0.0003295098655335161
0.01852111488993395,-0.00039755794510322424,0.0003170034139430962
0.023985624665920108,-0.000686448166319765,0.0002660400150469738
0.029661359577304258,-0.0010109119189205598,0.00017676965483539269
0.03553341302913119,-0.0013610431365230755,4.824664833952785e-05
0.041580263755872364,-0.0017269509607335692,-0.00011981408037890201
0.04777736559112944,-0.0020989486114574587,-0.0003267798840982272
0.0540934064101815,-0.0024680730107229727,-0.0005710857560008891
0.06049912367202514,-0.0028260434467753757,-0.0008506451522940855
0.06695586775859758,-0.0031659080395969297,-0.00116277116832029
0.07343744691129915,-0.003481275734002922,-0.0015048695906543818
0.07989768772376256,-0.003767597560513771,-0.0018738196813565039
0.0863260547163536,-0.004019882995652592,-0.0022673218973774324
0.09265988417353237,-0.004236060758640323,-0.002682009262903735
0.09892699586915188,-0.004411120134255529,-0.0031165284176403506
0.10501723456390201,-0.004546080658989978,-0.003566723776863675
0.11104703989190859,-0.004633182905046641,-0.004033044107097857
0.11677938317354444,-0.0046790669085405665,-0.0045089062342487125
0.122538806632078,-0.004667735607925549,-0.00499838206173309
0.12776973587680202,-0.004618715047134889,-0.005488841672369613
0.13328957746595133,-0.0044957865600035824,-0.00599232296577495
0.13778166689265176,-0.004349197217899282,-0.006482626966338874
0.14322303537590902,-0.004095212196704044,-0.006989690394979195
0.1465243452305023,-0.003856226141322377,-0.007458107443208394
0.15233162621159665,-0.0034394643710322892,-0.007957281254249833
0.153513414111058,-0.003132842729852677,-0.00837046138326496
0.16074984786996285,-0.002497307390842734,-0.00885191009618817
0.15788453337112238,-0.0021913859291260427,-0.009158297048309073
0.16898053581376254,-0.0012291378823554274,-0.009621374933407133
0.15805795990866395,-0.0010836761113136523,-0.009740140893919867
0.17832462220545223,0.00042385824074513254,-0.010208925480825594
0.15096232623951217,5.9682046713429676e-05,-0.010008705767845058
0.19171875182046605,0.0025650894755404295,-0.01055712993539146
0.1306234258467122,0.0009586710485043499,-0.009788465351167864
0.21574940001806583,0.005402070229145991,-0.010477349877104164
0.08577008662040875,0.0010338614947886836,-0.00827680815622269
0.26455276288580803,0.009220276638338768,-0.008049436926063431
0.0,0.0,0.0
0.0,0.0,0.0
0.003602796377950407,0.00017782199775746605,0.0002545471137557327
0.008637267936189257,6.22800542666077e-05,0.0003888084444405076
0.01398276586760993,-0.00015112264652809596,0.0004434616430666787
0.01956468543067864,-0.0004283268129553798,0.0004451139094992533
0.025370273142577164,-0.0007553916923695305,0.00040201290888790557
0.03138333232302539,-0.001120590932040599,0.0003150218274787372
0.037583815721857095,-0.0015124577892376358,0.0001835980530531891
0.04394636316289317,-0.0019197947933995228,7.895777930392472e-06
0.0504452923486265,-0.0023318489060517506,-0.00021095246630269747
0.05704918708780318,-0.0027389148196119524,-0.00047081972216092636
0.06373222459223181,-0.0031321762059796417,-0.000769118600131818
0.07045801467644634,-0.0035044873922614197,-0.0011026687072082859
0.07720762187278046,-0.003849291621585116,-0.0014685743648323922
0.08393602172070869,-0.0041622656742750785,-0.0018633849624904522
0.09064364923375139,-0.004438328202591788,-0.002284797181215111
0.09726279864712686,-0.0046759641994456825,-0.002729224369549779
0.1038391576658784,-0.004869752812440093,-0.0031956551236685237
0.11024297409227737,-0.005021717348163392,-0.0036796388194339203
0.1166254878399893,-0.005122788727651878,-0.0041824083044815505
0.12269959941942038,-0.005181581898379115,-0.004696677723623795
0.12886520876061444,-0.005178842226333752,-0.005228003812161001
0.13445214904211567,-0.005138380219387142,-0.005762065512321346
0.14044355407270995,-0.005016715088735576,-0.00631366303749933
0.14527219284010975,-0.004873624904794991,-0.006852902365457668
0.15127582769978412,-0.004609859045856869,-0.007414928581339472
0.15483193851345312,-0.004368647750056905,-0.00793683685129166
0.16135301702611513,-0.0039248635570629355,-0.008497861353962046
0.16259289766639298,-0.003610901783368404,-0.008966769439854989
0.1708240496083308,-0.0029214212015776482,-0.009516254520823187
0.16760438038021774,-0.0026074293245469437,-0.009876043791405154
0.18024660876652765,-0.0015488994693798942,-0.010412043411959896
0.1681586249846262,-0.0014069954146543366,-0.010574304056311346
0.19106606285167851,0.00026477579472986674,-0.011119443392558433
0.16095861420037944,-0.00014351400425889808,-0.010940523342581743
0.20647850803750728,0.0026373417118604314,-0.011566316909556637
0.13955243869016073,0.0008837685723711976,-0.010770695335358732
0.23351404692123914,0.005788668330276029,-0.01151312786130661
0.09175709938003916,0.0010412119398518428,-0.009130773432805541
0.2872009323266712,0.00999881939162348,-0.00875600133374433
0.0,0.0,0.0
0.0,0.0,0.0
0.003576136725848762,0.00024394565551966727,0.00032901391253733705
0.008885011758083658,0.00011161935089371369,0.0005107892276282138
0.014533877330403113,-0.00013282765811454216,0.0005965169577214257
0.020428136811424566,-0.00044855829080610635,0.0006184767485619946
0.026547126556036745,-0.0008188325532702576,0.0005872265891875147
0.03286839423009497,-0.0012298160364117613,0.0005045951826422634
0.039367933537970516,-0.0016682603928046642,0.0003707135678648154
0.046018025000577986,-0.0021215135998568944,0.00018649592351105721
0.05279364204594879,-0.0025776620901032167,-4.609340764511377e-05
0.05966452487628344,-0.0030262349952107593,-0.0003240499539850296
0.06660966026445325,-0.003457888190945944,-0.0006440349279615614
0.07359508197600505,-0.0038653597891026483,-0.0010021744389318752
0.0806099457615267,-0.004241988240457508,-0.001395162764163025
0.08760918481512413,-0.004583816868565023,-0.001819135878606576
0.0946051679016891,-0.004885719158133417,-0.0022718005012512536
0.1015223737886542,-0.005146915615282277,-0.0027493323645832
0.1084266447378934,-0.005361531814272398,-0.003251167146034514
0.11516339683675661,-0.005532831038984653,-0.0037725517716046307
0.12192408567246785,-0.005650219564026312,-0.0043156892784572565
0.12836182239306876,-0.005724659624024824,-0.004872544869200365
0.13496361325638387,-0.005733121909244023,-0.005450442346929895
0.1409265171223257,-0.005704370811436024,-0.006033229786327606
0.14742283428285632,-0.005586623357099944,-0.00663887969513977
0.1526006476221547,-0.005450456935129705,-0.007233496715622635
0.15920325578887673,-0.0051791497427409496,-0.007858019026582267
0.16301238740107254,-0.004939146492002349,-0.008441470608230498
0.1702903089959697,-0.004469406605354663,-0.009073734175054903
0.17156283734440725,-0.004151206231461043,-0.00960810124344684
0.18084560955233306,-0.003406603763966723,-0.010236827788521535
0.1772082247700148,-0.0030871102009811537,-0.01066104066138834
0.19148404735730354,-0.0019275018574332755,-0.01128244945268734
0.17811109780331538,-0.0017913546538459665,-0.011499407907971706
0.2038169058003552,5.501205098500918e-05,-0.012133500126822103
0.17076639519165968,-0.0004000010417918581,-0.011985024479056956
0.22135142258990528,0.002674928145376008,-0.012698653043672917
0.14827522711657692,0.0007689740569236701,-0.01187795100555456
0.25161979399141693,0.006164908482064415,-0.01267578476917762
0.09756656887856838,0.0010259886586319945,-0.010090049810527423
0.3105366730513081,0.01079272300906069,-0.009543774353598159
0.0,0.0,0.0
0.0,0.0,0.0
0.0032911621520691783,0.0003478232200655058,0.00042025150338395004
0.008747720908452524,0.00019561051744000434,0.0006599939325145754
0.014593465626633696,-8.693312322883401e-05,0.0007836725023974945
0.020715032771151238,-0.00044974342959946967,0.0008306089556608127
0.027086142680049583,-0.0008722517147231084,0.0008142770480815933
0.03367796927939038,-0.0013377554212069833,0.00073777236839484
0.040460545896143174,-0.0018306817278723358,0.0006021046763959925
0.04740036667558368,-0.0023366190971152306,0.0004091439278287511
0.054469493776942046,-0.0028423924382700544,0.00016187917082918316
0.06163509584688929,-0.003336850964674966,-0.0001356082620330099
0.06887851604042523,-0.003810295176178178,-0.0004790586909398315
0.0761656278597042,-0.0042556100364810326,-0.0008637429570058152
0.08349316866061596,-0.004666248256110252,-0.0012858485387645133
0.0908140835698171,-0.005038898962186763,-0.001740999878722837
0.09815399752947665,-0.005368520631663258,-0.002226912502685967
0.10542695377231272,-0.005655327038897519,-0.0027394784599603823
0.11272247216735569,-0.005892968880394576,-0.003278675083965259
0.11985616004931894,-0.00608623614367802,-0.00383941453516987
0.1270668728972193,-0.006222779269837706,-0.00442505928219365
0.13393814264444434,-0.006316331741082113,-0.005026757398172101
0.14105818263404046,-0.006339525665655704,-0.005653898149693452
0.14747245935190006,-0.006326813578905056,-0.006288335235798754
0.15456900159561943,-0.006216982450238558,-0.006951651061323685
0.16017548516872396,-0.00609275728711169,-0.007605611525558817
0.16748954863117319,-0.005817837328035004,-0.008297575271382552
0.17163136455130745,-0.005584347486355256,-0.008947880684177564
0.17980137881266875,-0.005091506699844585,-0.009657956109693173
0.1811778047235624,-0.0047739576746042775,-0.010264564301698406
0.19167664033321374,-0.003974388412224445,-0.01098082952508946
0.18766386774649657,-0.00365296940848622,-0.011477520607758888
0.20377341164738044,-0.0023874067704750934,-0.01219419721705295
0.18909053775677623,-0.002258437963416639,-0.012474559821745801
0.2178470966299853,-0.00022431216275797434,-0.013208676273374043
0.18170058870621414,-0.0007251211680782406,-0.013098740258205347
0.23769794920065843,0.002669487524451106,-0.013911525162777416
0.15808604905859364,0.0006118425876652435,-0.01306932283591334
0.2713514354186027,0.006541418271359517,-0.013928147839526535
0.10417578175143896,0.0010000648159609491,-0.011123517967162789
0.33568070220624086,0.011643402085299986,-0.010384380400467956
0.0,0.0,0.0
0.0,0.0,0.0
0.002872070758196447,0.00048532720806569317,0.0005402461983233269
0.008464443118047723,0.0003103073010958019,0.0008570385146475119
0.014495544852425896,-1.634604011293181e-05,0.0010317249495145084
0.020826520148729027,-0.00043334268818254467,0.00111213474544518
0.02742443812516458,-0.000915534573968465,0.0011153323637847579
0.03425516802522167,-0.0014428543525623178,0.001046246716766988
0.04128560145045525,-0.001997058982540532,0.0009074162317760039
0.048479775926085274,-0.002561763945688581,0.000702390881995749
0.05581038077292373,-0.003122411898327382,0.00043588089067432014
0.06324425612192214,-0.0036671662427362308,0.00011365165143363852
0.07076704112855857,-0.004186016105377397,-0.0002586706697109806
0.07834422789915202,-0.004672143323350131,-0.0006751839217281983
0.0859807233392263,-0.0051192393730107545,-0.0011314206762721793
0.09362514899609077,-0.005524875492868117,-0.0016224050046357214
0.10131718334441,-0.005884192872098162,-0.0021459197506122547
0.10895627341959307,-0.006198673589021597,-0.0026975943951101887
0.11665845703137201,-0.006461463812639139,-0.0032781348071869412
0.1242026768461604,-0.006679211061843386,-0.003882158486544615
0.13188216691874588,-0.00683755916779572,-0.004514476325432891
0.13919889466878213,-0.006953494251575377,-0.0051654160698716605
0.1468568647790861,-0.006994697652739198,-0.005846840841048509
0.1537283576250798,-0.007002118310004335,-0.006538505552139006
0.16144507051033608,-0.006903899783902561,-0.007266171219566557
0.16747477565814126,-0.006796371838925911,-0.007986977362916071
0.17552093899590906,-0.006521423911322763,-0.008755491160468278
0.1799712382523262,-0.006299507293843553,-0.0094827667465142
0.1890580685042609,-0.005786105436320317,-0.010282867670046473
0.1904856796092105,-0.005474031477003733,-0.010974881648433278
0.20223847129354505,-0.004619594973332773,-0.011794317706977305
0.19775374550588207,-0.0043003763827053915,-0.012379451164876543
0.21576752704690016,-0.0029247311436268885,-0.013209953018948985
0.1996133273946534,-0.002806382218853311,-0.013570939699588927
0.23157193628866937,-0.0005737353113557304,-0.014424785516768781
0.19208120844236007,-0.0011238882836760284,-0.014368165283260046
0.25382058189747186,0.0026111555036047894,-0.015297034511503736
0.16730262862142872,0.000395908558069259,-0.014437135169613024
0.29113358337531253,0.006892874195641374,-0.015361075723850873
0.11028950958959377,0.0009372914299925058,-0.012307168437833584
0.3613309234520448,0.012496817864532345,-0.011344326615318522
0.0,0.0,0.0
0.0,0.0,0.0
0.002009585167082105,0.0006873729027944271,0.0006831381430681189
0.007520904401856781,0.00048401622296054915,0.001090443002580804
0.013561013100449062,0.00010064639646300573,0.0013240369720829968
0.019969569531655143,-0.0003856814148810138,0.0014424657949323983
0.0267110045137395,-0.0009431549009375462,0.001467471868160614
0.033744113583681616,-0.0015468210406196555,0.0014064209486009754
0.04102658790202149,-0.002174768993355055,0.0012637951078937062
0.048511242742838315,-0.0028081894789744356,0.001045179840934625
0.0561626855955357,-0.0034311290357158133,0.0007573217315198508
0.06393919201966357,-0.0040313938951087765,0.000407970115962357
0.0718252437103243,-0.004599121868517679,4.3579930468320235e-06
0.07978110556289612,-0.005128351841789146,-0.00044622236692058894
0.08781864473513767,-0.005613461925308106,-0.0009385324299331485
0.09587936865721967,-0.006053391326694074,-0.0014668855185302357
0.10401905221766294,-0.0064437040636224656,-0.0020291590444721256
0.11211941729966053,-0.0067875366121269405,-0.0026206899711886298
0.12032820214680899,-0.007077528332523219,-0.003243071287807042
0.12838185223019827,-0.007322573043793983,-0.003890618204582683
0.13663775769397354,-0.007506033581096761,-0.0045698705162878425
0.1445047868974758,-0.007648691885861914,-0.005270285398236952
0.1528207085309858,-0.0077126136798211994,-0.006006620186948554
0.160262710027697,-0.007746138434713632,-0.006756367699633318
0.16873853523882043,-0.007665455887698052,-0.007550073165392808
0.17531503546054258,-0.0075820670663332675,-0.008339874427649628
0.18425886572833416,-0.007313634554909683,-0.009188415890634372
0.18915037092768763,-0.007111700332578241,-0.009996732189455524
0.19935552219011388,-0.006583641859883781,-0.010892793065048804
0.20096938577968157,-0.006285347979154367,-0.011676658813100014
0.21422324890967384,-0.00537900222606708,-0.012608151223457558
0.20938068759030273,-0.005068479028059211,-0.013290610822986644
0.22959591723632067,-0.003579150937079082,-0.014246968500077927
0.21200907381433245,-0.003474029122438326,-0.014699358968354267
0.24752180676677593,-0.0010275155818396454,-0.01568802026375884
0.20455368708852079,-0.001624155561270608,-0.015695895633958602
0.27246925334863603,0.002485035256327976,-0.01675794290617865
0.17857502641662892,0.00011813227691798622,-0.01588682815309693
0.3135932894483137,0.007241851072302203,-0.016886931820977523
0.11794157096636035,0.0008634653726633639,-0.013567505470902299
0.3897826670859749,0.01343896676872983,-0.012357212025356782
0.0,0.0,0.0
0.0,0.0,0.0
0.0010251669593414013,0.0009368139585986908,0.0008728698042351482
0.006509759950111939,0.000700477577273505,0.0014015320627999992
0.01260305300523584,0.00025133284200803626,0.0017141592069204738
0.01910909896641951,-0.00031475856858155217,0.0018822357986878029
0.02598687791563705,-0.0009580891400670082,0.0019334812501324117
0.03319097262520923,-0.0016480567483038618,0.0018790471231361235
0.04067701997825708,-0.0023586146276511587,0.001726903021238052
0.04839498826588149,-0.00306828673243702,0.0014862534229225207
0.05630959608345868,-0.0037596191593735435,0.001167269991496303
0.06437580718105135,-0.004420119247403402,0.0007807700225346334
0.07258070421489034,-0.005040197624395138,0.0003362973071658182
0.0808791507269892,-0.005615023804810793,-0.00015704712676910983
0.08929050116626085,-0.006139893675618504,-0.0006931287816836036
0.09774544196898376,-0.006615494154196339,-0.0012655307404226153
0.1063165003841919,-0.0070379902640061165,-0.0018724053300228664
0.11486180094295333,-0.007412579237136015,-0.0025089167322130965
0.12356439029280526,-0.007731386356210433,-0.003177870516481632
0.1321093796754034,-0.008006004394375927,-0.0038733970786870445
0.14092732149474302,-0.008217221932099254,-0.0046042002074509905
0.1493191477506654,-0.008390237813717751,-0.005358910155710561
0.158274554049607,-0.00848077721405652,-0.006155764947432937
0.16624953729253497,-0.008545563154927868,-0.006969906084790778
0.17546166913710023,-0.008487407022810934,-0.007837486155077561
0.1825299626511663,-0.00843470010127856,-0.008705319043187675
0.19234498273886969,-0.008178289385212163,-0.00964530630495084
0.1975963740252439,-0.00800385279036684,-0.01054771727396866
0.20889306505249922,-0.007466054925151988,-0.011556137782296246
0.21057392814524092,-0.007189312778315117,-0.01245004225630597
0.2253132843595866,-0.00623360079385289,-0.01351605489639876
0.2199394968904,-0.005939038471358177,-0.014319425435545381
0.2423784934247436,-0.004333823439592675,-0.015430104731644814
0.22311078212649882,-0.004248478481631342,-0.016001038475522856
0.26230346161138596,-0.0015780699335113167,-0.017156519722361437
0.21552059036623197,-0.0022277915325507338,-0.01725368761642557
0.28997921435295915,0.0022775644280232403,-0.01847761013694544
0.18827467294788486,-0.0002496105162500645,-0.0176033207948303
0.3352759846925594,0.007537763327880362,-0.01868850359623618
0.12431641935042627,0.0007259141092967592,-0.015058745621818349
0.4181141066692884,0.014351103622223636,-0.013559562625147974
0.0,0.0,0.0
0.0,0.0,0.0
-0.0007253242547574801,0.0012940548919506028,0.0010927533380626743
0.004348547451819755,0.0010140702634923286,0.001758966262344216
0.010193874014467063,0.00047558299799889034,0.0021581317758759657
0.016589665643056438,-0.00019803777685836456,0.002378352400828755
0.02349512573105367,-0.0009548067252752005,0.002455401700158763
0.030852705595882216,-0.001755425612008356,0.0024054437669430444
0.03859897450796753,-0.0025679901427123615,0.002240712711566052
0.04665982689102022,-0.003367891885762997,0.001974580666862164
0.05498057854693786,-0.004136610125771183,0.001621050862532472
0.06349644976924808,-0.004862352546680809,0.001194353626929317
0.07218700904921754,-0.005536924612383207,0.0007065939201113757
0.0809942155618387,-0.006157765013597437,0.00016889648387179504
0.08994361615319693,-0.006721934291539385,-0.0004116276803633316
0.09895216811125003,-0.007232658083590116,-0.001027755675724774
0.1081130401529786,-0.007687081764355594,-0.001678014645180674
0.11725772315080753,-0.008092994471681575,-0.0023574104919372204
0.12661246990724362,-0.008442002922330504,-0.00307021456864776
0.13580451804712795,-0.008748897136948926,-0.0038103934807988517
0.14535105205736748,-0.008991543377876207,-0.0045892124913920265
0.1544313794324898,-0.00920025171327612,-0.0053944192442717115
0.1642104483516944,-0.009323609408115427,-0.006248317533650325
0.17289687565118114,-0.009427853248790115,-0.007123475152458461
0.18305883549176868,-0.009400873652720694,-0.008062523668575676
0.19081872422462265,-0.009389873954730505,-0.00900642067273067
0.20176173226703867,-0.00915604720385541,-0.010037646816090219
0.20759781192441068,-0.009022497647901744,-0.011034617782914346
0.22030246313003218,-0.00848599983041105,-0.012158594747758282
0.22229732618697542,-0.008245173726207446,-0.013166383208270991
0.23891548028323853,-0.007248456067227322,-0.014374709765515161
0.23325551248923626,-0.006982341973845962,-0.015306849998872728
0.25839457030295954,-0.005261226925777826,-0.01658527905490752
0.23761436306374362,-0.00520187026123176,-0.017286634367683622
0.28103376044240974,-0.002290298475889259,-0.018628815017989027
0.2303725614832552,-0.0029882218736204994,-0.018829986035145203
0.3119808258881854,0.0019595960236907673,-0.02024156702051897
0.20188839708008144,-0.0007125940190146167,-0.019375610075843486
0.3616337241073844,0.007826981993677668,-0.02056685013623328
0.1336928951366803,0.0005789161864859684,-0.016613168102016195
0.4511248962585129,0.0154137418823277,-0.014799727549084969
0.0,0.0,0.0
0.0,0.0,0.0
-0.0024723863359877836,0.0017101467110898615,0.0013926129122486517
0.0024206248273021306,0.00137888414109374,0.0022488018465631828
0.008204425738237408,0.0007377228448566162,0.002766811295004157
0.014602769222861987,-5.7981066376718425e-05,0.00305484435105653
0.021568862784440725,-0.0009420260378219011,0.0031595813812767023
0.029042060506691367,-0.0018654408673962012,0.0031055591698229434
0.036959237650588395,-0.002790057770041723,0.0029129217328351413
0.04524399451010528,-0.0036880446853392256,0.002602582088998917
0.053841872615560345,-0.004539843828699105,0.002195011833342407
0.06268088649902168,-0.005334557890419428,0.0017096332048890757
0.07174084374334978,-0.0060656363349504885,0.0011620596292738967
0.08095119688816221,-0.006733229258318461,0.0005658212667220441
0.09034407244528374,-0.007336532002971469,-7.107075507354947e-05
0.09981697760889012,-0.007881869094127183,-0.0007408042974430016
0.10948394331181965,-0.00836763475327996,-0.0014427222706177184
0.11914151548340096,-0.008804769679129673,-0.0021719871352766963
0.12906360268259517,-0.00918436137752831,-0.0029348761412166693
0.13880791333425907,-0.009524993956369666,-0.003725418401959116
0.14898988342110342,-0.009801241567426143,-0.004558070064439395
0.15864815283168707,-0.010049333948091179,-0.0054197707045037
0.16914599345356254,-0.010209829211589026,-0.006337721946098511
0.17841147519268613,-0.010359756896794891,-0.007281782046666115
0.18940579849712963,-0.010370352959472875,-0.008302289902105688
0.19769558355238764,-0.010409800647510403,-0.009333861492107656
0.20963625898304983,-0.010206496869888733,-0.01047145669470043
0.21585313797856978,-0.010124750782931617,-0.011580491281881454
0.22982416201925926,-0.009597852204543933,-0.012842871285633311
0.23186959203003155,-0.009405306121864075,-0.013990268784199199
0.25022651956393144,-0.008374147719190837,-0.015374094061403085
0.24393806143068972,-0.0081493755727831,-0.01647051225876485
0.27167718977739064,-0.00631422441397101,-0.01796151575833411
0.24894758427573493,-0.006293950804094528,-0.01883706979593402
0.296633185210216,-0.0031345599472185266,-0.020419610289968443
0.24157462475803262,-0.003894769878887074,-0.020767948876099042
0.33072409623384535,0.0015156849274850265,-0.022418060463050397
0.2117131935893332,-0.0013175730502442173,-0.021578109392441567
0.3852228718748055,0.008009559717231912,-0.02289481786528595
0.14001464578150963,0.0003168088139199691,-0.018548353541754613
0.48238675547667426,0.016369691752223477,-0.016362079388892975
0.0,0.0,0.0
0.0,0.0,0.0
-0.005597611815305273,0.00230820560824262,0.0017301816856784597
-0.0016100625847596073,0.0019035758038804635,0.002793312522700544
0.003565886874300335,0.0011134075938736816,0.0034333419213151846
0.009624827422946573,0.00014272614724447464,0.0037851250811615673
0.01651846978087841,-0.000918517826899909,0.003910505486230026
0.024155500812816845,-0.002005680630474306,0.003844873587875062
0.0324273071627091,-0.00307175597955268,0.0036175512009157963
0.04120513630740182,-0.004085934248901726,0.00325757115121373
0.050392873965729265,-0.005029554782570407,0.0027921137780668685
0.05988039661947762,-0.005895277687059359,0.0022459393224614544
0.06963097172507969,-0.006680709074066897,0.0016382366997255717
0.07955181347398316,-0.007390871193042001,0.0009850066576220363
0.08968204245876353,-0.00802853920201951,0.00029509597903264656
0.09989847069736098,-0.00860429195480517,-0.0004231340275763018
0.11034372653450607,-0.009118249954268038,-0.001170070930599284
0.12077754263907754,-0.0095851356607161,-0.0019411226528673578
0.1315336772706401,-0.009995424430585096,-0.0027449392568455796
0.14209316884426415,-0.010372081899481527,-0.003575646248571426
0.15318857091884908,-0.01068589049547501,-0.004451412840369549
0.1637010634503249,-0.010979896310366848,-0.00535824897533835
0.1752236023401538,-0.01118562099379998,-0.0063290413071755425
0.18537065508193246,-0.011392412673033396,-0.007330534384136723
0.19755068864953718,-0.011452961679636043,-0.008422044987489465
0.20671265104450676,-0.011559023014694985,-0.009530923798136894
0.22007607191513381,-0.011402700647628135,-0.010766722295443606
0.22706783583240753,-0.011393863580813042,-0.011979965753508372
0.24283178034434086,-0.010895828759239659,-0.013376768720724247
0.2453795601563025,-0.01077625917269711,-0.014660019166540007
0.26613651403984073,-0.00972881069549926,-0.016221858383085593
0.2597087635447993,-0.009569494244318003,-0.01748453806828149
0.2908596639916894,-0.007628616227370911,-0.019199863427790665
0.266609000192203,-0.007662585556633227,-0.020258807129878927
0.3194875229820465,-0.004238175529285327,-0.022105859536779748
0.2601487548559067,-0.005054983505263111,-0.022618368857660543
0.3577927779517588,0.0008836646015785612,-0.024545306027292633
0.229160638819964,-0.0020789667882729086,-0.02375078125299686
0.4174497074077601,0.008177130964244623,-0.02523185692555043
0.15234095723337868,5.0369166791866754e-05,-0.02048978290974218
0.5220649656778685,0.01759975268035949,-0.01790629145461401
0.0,0.0,0.0
0.0,0.0,0.0
-0.008318072208558278,0.00296469272022863,0.0022124393533885906
-0.0045922839870748255,0.0024738121621782814,0.0035766974538712585
0.00048379849595113863,0.0015158789632893725,0.004392518826395336
0.006510449960569665,0.0003520761626681773,0.004827583046222839
0.013428217021857258,-0.0009012217727589064,0.004966099645998629
0.02114574074317638,-0.002163191742821234,0.004862935172335514
0.02956278683876796,-0.003378414694605353,0.004565080476023027
0.038554112408345935,-0.004513644314548114,0.004116601328533092
0.04802757713024161,-0.0055514498612824785,0.003556035689414496
0.05786251494939618,-0.006488378538672765,0.002916009752855983
0.06802019403327829,-0.00732651296786778,0.002220162425713469
0.07838635882315717,-0.008076318885228376,0.0014868729765878115
0.08900617577756753,-0.008744626317305361,0.00072514482793937
0.0997263592397574,-0.00934699308443703,-5.688113744443465e-05
0.11071687361720467,-0.009885583500491795,-0.0008615538204781177
0.12168848351741983,-0.010379599494855786,-0.001685173036042849
0.13303986029560974,-0.010818848774549524,-0.0025395956423142235
0.14415935888557332,-0.011231430493317533,-0.003419406033099619
0.1559116004854493,-0.011583810301978673,-0.004347342389103592
0.16699453830788852,-0.011926923849493665,-0.005308552826699905
0.17926101682917914,-0.01218208283675914,-0.0063427503380020815
0.18996677196201042,-0.012452715784744953,-0.007413278254781735
0.20302375519944976,-0.012570715338252348,-0.0085902606740311
0.21268236976142496,-0.01275441653808293,-0.00979291564183152
0.22712762024412453,-0.01265552408181554,-0.011148505419312964
0.23444339216819415,-0.012734692406880105,-0.012490673639773901
0.25162283668151203,-0.012277919222695237,-0.014055058138939699
0.25411482676941777,-0.01225017763706662,-0.015511497781917181
0.2768669398304043,-0.011198754771667388,-0.017301636780376557
0.26960290878171556,-0.011127013748123834,-0.018784906564809453
0.3037849191508209,-0.009089564003649134,-0.020796749292608854
0.2771686957483552,-0.009203445597897273,-0.02211100355791138
0.3350410394658714,-0.005516067807105393,-0.02431526463983268
0.2705054356220793,-0.006420191332282315,-0.0250693789360713
0.37698257569569477,5.6737827362972684e-05,-0.027367793390538245
0.23800610018154164,-0.003069728784447892,-0.02665837818027342
0.4424020506918462,0.008134981281214612,-0.02834829416159073
0.15768510176134748,-0.000430886506899868,-0.0231009018668394
0.5561144950249245,0.0185501423069975,-0.020034594976586557
0.0,0.0,0.0
0.0,0.0,0.0
-0.013655266734085595,0.003938643591796265,0.002737519087207544
-0.011643077469578373,0.003312451726126255,0.00441393024552988
-0.007711391278324241,0.0020906179224459355,0.00539390166754368
-0.0022948099852544966,0.0006291169285509733,0.005891135243159059
0.004522898400122863,-0.0009081444634073484,0.006021558354820477
0.012562463992021515,-0.002413067634653354,0.005864254272944967
0.021611898741714177,-0.0038194348487166473,0.0054852380165399395
0.03143428154872571,-0.005095099922481763,0.004943261459844154
0.04185541677400731,-0.006230002407185364,0.0042873746063384266
0.05268970676227942,-0.007230961622403447,0.0035573373802077466
0.06387238701376374,-0.008109655983092105,0.0027806876971110117
0.07525907593880753,-0.008885705681885377,0.001977824169514684
0.08690761614147817,-0.00957211734656001,0.0011575393826905546
0.0986389403606569,-0.01019082044186664,0.00032749953502401183
0.11066536043468375,-0.01074637729635041,-0.0005169965827071096
0.12264992887759685,-0.011263016600505117,-0.001373309966373318
0.1350750388028009,-0.01172950168432113,-0.002256948898107788
0.14722888398508902,-0.01217967440843625,-0.0031629495535259594
0.16013497319559483,-0.012574889625389477,-0.004119207813526649
0.1722866993288424,-0.012975154399797134,-0.005109717821325137
0.1858406530187734,-0.0132902082694521,-0.006181984715275334
0.1976496230213609,-0.01363977359489611,-0.00729517714879204
0.21220566904777863,-0.013832475094756899,-0.008532001273053758
0.22297604423370557,-0.014117107893926463,-0.009801863484594144
0.23924619915097903,-0.01410035893507556,-0.011253059621087342
0.2475987633853259,-0.014300213423350786,-0.012698915702346136
0.2671135961809491,-0.01391659537746093,-0.01441074871413254
0.2703848297026804,-0.014022501231502765,-0.01601862462999655
0.29629625383748265,-0.013002258612682609,-0.018024887508441223
0.2891486907035845,-0.013064099595722358,-0.019713528886915032
0.3278160207171273,-0.010956068517653995,-0.022023511515065222
0.29978446474204434,-0.011185720986046562,-0.02358879331443927
0.3643370398265271,-0.007224819362125591,-0.026174242888163196
0.2951515411709456,-0.008215679208609999,-0.027182344552011066
0.412147456925732,-0.0011068739081388657,-0.02990732150307279
0.26202029638409363,-0.004337939700618366,-0.02931236883411023
0.48407221865381705,0.008055367485608178,-0.031282731657413
0.1753264216967066,-0.0009087522296544304,-0.025555056429262018
0.6062932731833622,0.020026710872052978,-0.021989849623470347
0.0,0.0,0.0
0.0,0.0,0.0
-0.01752793668636567,0.004934197834456804,0.0035414664577055515
-0.015642304704512982,0.004150014218172335,0.005708013045594053
-0.011650054710664572,0.002640609520354075,0.0069425018964759545
-0.006163126035612068,0.0008659396414295137,0.007518961471830941
0.0007097945091374479,-0.0009608904917436277,0.00760529032424323
0.008805278200024663,-0.0027075945330116186,0.007327033106485554
0.017948858961615334,-0.004300687262875097,0.006788322080808833
0.027930171702948925,-0.005711099114236013,0.006075773605812216
0.03859282819875751,-0.006936596473929489,0.005256062716036524
0.049740276702994225,-0.007994225747283163,0.004378591210010886
0.061304145045320016,-0.008905186290433213,0.0034744676169156607
0.07310775919357435,-0.009698635764444827,0.002564501877432755
0.08521516575870437,-0.010394127148803781,0.0016552386036985953
0.0974046699804588,-0.011020709996516224,0.0007520430917685798
0.10992558054674677,-0.011585577679968324,-0.00015379833895549173
0.12237482291224219,-0.012118737103844802,-0.001061842668684529
0.13532318093214044,-0.012607675510056853,-0.001992413536408296
0.1479359135959187,-0.013092873398687838,-0.0029415184973238468
0.16141412065573868,-0.013529764749833527,-0.003943260767495489
0.1740102167376957,-0.013988878089561351,-0.004980508344636328
0.18822473239801182,-0.014366725961535189,-0.0061100038027352204
0.20044252116789255,-0.01480189506605429,-0.007286205855241307
0.2158136054689262,-0.015076584794250785,-0.008606981346821523
0.22690333297265275,-0.01547460612793985,-0.009970432205467146
0.24424292564413919,-0.015551766703343739,-0.011550797804512992
0.25269718981531775,-0.015891438232900235,-0.01313765560346651
0.27370149700428115,-0.01559684503812132,-0.015047220840803533
0.2766086385892392,-0.01586318680576784,-0.016862328442590613
0.3047356705535543,-0.014892980182265566,-0.019162578781660916
0.2962836176736135,-0.015124311821124704,-0.02114069986868419
0.33845145840635726,-0.012965930932577903,-0.02386704982054406
0.30729073641543503,-0.013359697557156503,-0.025802771378764036
0.3777405504303475,-0.009145528748975016,-0.02893368393105747
0.30209038229712226,-0.010289054856646955,-0.030337666689916096
0.4296446203452513,-0.0025675620590233862,-0.03367412748678429
0.2671631989834064,-0.005981661197156783,-0.03328396940493621
0.5085455967364518,0.0075667394294041705,-0.03564404763892527
0.17738341289865336,-0.0017978218635319517,-0.029256864622147633
0.6419114994244154,0.020838056688514427,-0.025069904102645466
0.0,0.0,0.0
0.0,0.0,0.0
-0.02665210630387023,0.006509301029314755,0.0043842242242901125
-0.027931476836572836,0.005449975432840132,0.007025654797584988
-0.025930193622842993,0.003443280343050303,0.00846016448604887
-0.021323161334481967,0.0011433325335010506,0.009053733305104611
-0.014347146743930783,-0.001141802072703709,0.009047404981707337
-0.0054178053990094,-0.003238544715224387,0.008620396704838872
0.0050214993009116615,-0.005069853272171553,0.00791331140708185
0.01653240013679298,-0.006624134501419356,0.007035932276673179
0.02881167000754156,-0.007923416227318096,0.006068166226742711
0.04156724934788152,-0.009008684555195788,0.005066017936358293
0.05470277299575052,-0.009919863639099717,0.004062291828262027
0.06801268941243864,-0.010701059435937174,0.003077095229105712
0.08159013341811223,-0.01138070855358958,0.002113953888499723
0.09518838822904636,-0.011995994990697723,0.0011754440331271647
0.10912154710140672,-0.012556405588747294,0.00024838015952575494
0.12292833328656799,-0.01309777605838404,-0.0006691567953757457
0.13729645761921383,-0.013605325775980488,-0.001602647325022587
0.15126154349305884,-0.014126668629306647,-0.0025489073187624778
0.16624036644758883,-0.014610032197505129,-0.0035486843600294874
0.18021739346191953,-0.015138044082365153,-0.004583130221399211
0.19609963116343967,-0.015592064578725452,-0.0057191508541482375
0.20974341022606158,-0.016132891884495376,-0.0069051694269700835
0.22706902720160058,-0.016512871797600095,-0.00825635717639208
0.2396186738321001,-0.017057042751946035,-0.009656699645419814
0.25937434516920094,-0.017263775678748417,-0.011311108275290586
0.2692483932210507,-0.01779268075095174,-0.012979516699749909
0.29340285237023783,-0.017637503317361348,-0.015032927102867029
0.29750442426685336,-0.018133681304757225,-0.016994930563594416
0.32996360439560213,-0.017276991144677695,-0.01954218464117316
0.3220451187341738,-0.017764160526957597,-0.021752701494170957
0.37041609871041403,-0.015616859191779853,-0.024866218392105614
0.3381213347831374,-0.01625699383120972,-0.027127512916341728
0.4177111391144461,-0.011803417642638613,-0.03081236691858036
0.3371231964321322,-0.013124983463857962,-0.032596900731691136
0.47855182000892055,-0.004661782111626398,-0.036618673602330024
0.30297087321164007,-0.008160662621660734,-0.0364670392316011
0.5665326868121879,0.0069694254055730435,-0.03934952633779493
0.2051185213237476,-0.0026895676714671695,-0.03238853493359049
0.7100713060785135,0.022694193273111528,-0.027591993064931507
0.0,0.0,0.0
0.0,0.0,0.0
-0.03169396110567332,0.007971687029683745,0.005801470482520685
-0.0324085622669413,0.006595055174981616,0.009265937410037915
-0.02971255146491667,0.004073299258310187,0.011044441109442478
-0.024656776387490496,0.001264060800992761,0.011639756584248895
-0.017519014653851122,-0.0014402301135885167,0.011425617911329851
-0.00862259893112174,-0.0038421818208334026,0.010690591724178728
0.0017239735949093346,-0.005872525887791713,0.009651574975531025
0.013177350326388943,-0.007540181796127887,0.008463263455424938
0.025486474857828827,-0.008889629761228783,0.007226453168238739
0.03835231701652665,-0.009983039241999123,0.006003048385379877
0.05167233782252873,-0.010877006338055564,0.004823198433468645
0.06519502730810284,-0.011629852822811863,0.0037012113824514215
0.07901991758684393,-0.012278641697657751,0.00263307233313596
0.0928434523705797,-0.012869128609950235,0.0016150807030472561
0.10702950538071479,-0.013413005059529491,0.0006269738982585018
0.12103008740995294,-0.013952568871564626,-0.0003372634402878784
0.13565113007315033,-0.014470210044088312,-0.001309674033749719
0.14976589375463367,-0.01502166674177222,-0.0022885865661704426
0.16502788667349547,-0.015546721656805075,-0.00332246204942994
0.17910172051306142,-0.016142040178431443,-0.004390782838344436
0.19535251603426695,-0.01667143759774063,-0.005572155132682098
0.2090131495683723,-0.017321712644764883,-0.006808275103171433
0.22688188544775734,-0.01781070975958458,-0.008234769225422803
0.23929841500414661,-0.01851183812675293,-0.009719426900698606
0.25990894668764924,-0.01885708111745573,-0.011504687909092915
0.26933446512057846,-0.01959550802910645,-0.013315690648554776
0.29487654351925624,-0.019594637331692512,-0.015592720863636474
0.29788918391517055,-0.020354238699079506,-0.017788152902129102
0.3326656333229118,-0.01963307968054548,-0.020704779787502334
0.3224115691442556,-0.02042968380156305,-0.023278968902343784
0.3747489767047579,-0.01832604519678383,-0.026974146478589003
0.33777714355446714,-0.019299101159639093,-0.029759355531438016
