-1.93433019594457e-05,1.280079173376609e-06,1.4484506873372884e-06
-3.490791726663809e-05,1.2077266962095904e-06,2.6505492606961796e-06
-4.9034529072187785e-05,1.0451021195230578e-06,3.716711308028005e-06
-6.109225192456452e-05,8.260345105992573e-07,4.606848516310762e-06
-7.052918998878408e-05,5.674005394044849e-07,5.277683453377346e-06
-7.694633846991165e-05,2.8849348694650935e-07,5.7003385528620495e-06
-8.012272894737223e-05,9.665587296563856e-09,5.863404630761749e-06
-8.002219709738812e-05,-2.4997125144831664e-07,5.7731395332421955e-06
-7.678065486067015e-05,-4.7483988668219975e-07,5.451608660629172e-06
-7.067354242577939e-05,-6.549095656357102e-07,4.932910382554525e-06
-6.20644849972583e-05,-7.872006774752193e-07,4.25776008568773e-06
-5.133774023729657e-05,-8.765858648758047e-07,3.4668907084090055e-06
-3.881946947313957e-05,-9.357488852293203e-07,2.5939116507199555e-06
-2.4695978843589787e-05,-9.842653533177249e-07,1.6584042595802959e-06
-8.938991179224854e-06,-1.0468615271102369e-06,6.600608419424332e-07
8.751273417583953e-06,-1.1509688011888298e-06,-4.253538282800965e-07
2.897462607496691e-05,-1.323727171937415e-06,-1.6475343390223808e-06
5.2618840685331655e-05,-1.5887415547047093e-06,-3.0800656201691827e-06
8.079913641580816e-05,-1.962939188412152e-06,-4.815600637919689e-06
0.00011474424710923651,-2.4540350085482845e-06,-6.957888268621848e-06
0.0001556457889571164,-3.058573473093576e-06,-9.611721306934322e-06
0.00020447671091576998,-3.7610001000045194e-06,-1.2871034709428598e-05
0.0002618320470623021,-4.532510657228988e-06,-1.6807501409199463e-05
0.00032774652762494554,-5.331971450544977e-06,-2.1457083234147942e-05
0.00040164086966233475,-6.1039729966371045e-06,-2.681193946326427e-05
0.0004821042797540309,-6.785497635614582e-06,-3.280370314183876e-05
0.0005671658324996645,-7.297445841575286e-06,-3.931071720916768e-05
0.0006536687810480122,-7.573350295807713e-06,-4.612239401353898e-05
0.0007387308865875578,-7.513006717513764e-06,-5.300766826443104e-05
0.0008169410929222769,-7.1007106870646404e-06,-5.957704778326754e-05
0.0008867477451662245,-6.176820295290563e-06,-6.560054847527856e-05
0.0009376805671488332,-4.941128600457515e-06,-7.038259280981543e-05
0.000977695293993901,-2.9223172310207827e-06,-7.413099817953364e-05
0.0009774701867153706,-1.1309185022009175e-06,-7.518961155366052e-05
0.0009854253657751177,2.3584962945141772e-06,-7.582735255813407e-05
0.0008946153333817932,3.393049521676685e-06,-7.048768929319146e-05
0.0009134231537915355,9.995198324375814e-06,-6.970136291557796e-05
0.0006247430095504213,5.730766442514341e-06,-5.2016348984400695e-05
0.0008517574962521798,2.2586675935080088e-05,-5.911405178376603e-05
0.0,0.0,0.0
0.0,0.0,0.0
-3.78320836520004e-05,2.603974266544389e-06,1.9185706996015703e-06
-6.801533899486338e-05,2.462730039000688e-06,3.501147364976371e-06
-9.550282384889093e-05,2.1383091433944236e-06,4.9050263403471995e-06
-0.00011909400807181071,1.6996500963550864e-06,6.082713454232469e-06
-0.00013772887150174975,1.1802579417177939e-06,6.97865981127159e-06
-0.00015062482169212306,6.180125101231723e-07,7.554728111686677e-06
-0.00015731974710213268,5.2861999108011646e-08,7.79440706480957e-06
-0.00015768513887105899,-4.775136394390382e-07,7.7031213948697e-06
-0.00015190544288498913,-9.42140681657606e-07,7.306001072830569e-06
-0.00014042211967829114,-1.3207136068698077e-06,6.643305952599274e-06
-0.00012384357552594323,-1.6066371596507136e-06,5.763828140937467e-06
-0.00010282480432960311,-1.808750442594834e-06,4.716809137034075e-06
-7.792500775569035e-05,-1.951424384227497e-06,3.543133957128342e-06
-4.945777927231283e-05,-2.072912462948569e-06,2.266753801506212e-06
-1.7352648490258423e-05,-2.222017705540996e-06,8.873431386667916e-07
1.895152927709492e-05,-2.4532697023608473e-06,-6.248218435530177e-07
6.0561640911235e-05,-2.820863314674394e-06,-2.3308995734859983e-06
0.00010910983526423277,-3.371944428982578e-06,-4.321604680986597e-06
0.00016664144799046775,-4.139947026541202e-06,-6.711149040388518e-06
0.00023539736479258731,-5.139171709076563e-06,-9.626926708297789e-06
0.0003175243936022187,-6.360627611999453e-06,-1.319646142843071e-05
0.00041471968736790334,-7.770386696417148e-06,-1.7531714346554496e-05
0.0005279293209173641,-9.307552459576114e-06,-2.2714708511475915e-05
0.0006569913746049641,-1.088718262185385e-05,-2.8780087766428713e-05
0.000800575042106965,-1.2396344296508041e-05,-3.570699393086156e-05
0.0009557360634295007,-1.3709743264855257e-05,-4.339664367238238e-05
0.001118579412549264,-1.4669807864694918e-05,-5.168843468900582e-05
0.0012828681317720945,-1.5151029474767666e-05,-6.030601194527006e-05
0.00144330471146058,-1.4953276724862743e-05,-6.896616838277775e-05
0.0015892618481324727,-1.4064844177776052e-05,-7.7164220837418e-05
0.001718845596957696,-1.2151363259096632e-05,-8.465568236075049e-05
0.0018108158872620233,-9.66477833195393e-06,-9.051322013811694e-05
0.0018839276667699367,-5.584015294499472e-06,-9.514157094841877e-05
0.0018767496269867271,-2.0898865848993357e-06,-9.625041469057513e-05
0.001893419048957572,4.949934948713438e-06,-9.71177337846507e-05
0.001709576533480052,6.7376523263867975e-06,-9.007792356582032e-05
0.0017607787731538517,2.0130633079781048e-05,-8.95251348770023e-05
0.0011862621554219873,1.1029538310150252e-05,-6.672624863092189e-05
0.0016655592058023574,4.475550088630445e-05,-7.621596557094917e-05
0.0,0.0,0.0
0.0,0.0,0.0
-6.195757420499097e-05,4.405618780258104e-06,2.7575743246041705e-06
-0.00011094020615773706,4.175763527671668e-06,5.014830197906253e-06
-0.00015565101337656117,3.6380020011541648e-06,7.018454760696876e-06
-0.00019421257435687622,2.909672989500906e-06,8.70927722775601e-06
-0.00022493441692982447,2.0450712949277903e-06,1.0010784544829573e-05
-0.0002465408748084404,1.105288485057652e-06,1.0868445042689897e-05
-0.0002582353789074016,1.548642552988665e-07,1.1256005098853647e-05
-0.0002597207084453227,-7.450587663702724e-07,1.117606135031408e-05
-0.000251169664460819,-1.5438191396417753e-06,1.065728818015679e-05
-0.00023314364490164446,-2.2076361284471542e-06,9.748627959959414e-06
-0.00020646076435998129,-2.724626092183471e-06,8.510843368136258e-06
-0.00017201880600477268,-3.1077912487351998e-06,7.006083164572053e-06
-0.00013058441411844653,-3.3954335018597427e-06,5.286400437494937e-06
-8.257003394691539e-05,-3.6487237077294106e-06,3.382449727452565e-06
-2.7827297084322054e-05,-3.946458197945258e-06,1.2936967180001704e-06
3.451159138776637e-05,-4.37727191698423e-06,-1.018518050723289e-06
0.00010611617555312595,-5.0296243777756635e-06,-3.6339037028651867e-06
0.00018942705538983127,-5.980459671444947e-06,-6.670872383663941e-06
0.0002874879806730286,-7.283634820402189e-06,-1.0278452371269168e-05
0.00040360966058780834,-8.960396135258655e-06,-1.462195196674581e-05
0.0005409211609664134,-1.0992032324458672e-05,-1.9864751930126008e-05
0.0007018011029101473,-1.3317590696328895e-05,-2.6145888433052337e-05
0.0008874172297660207,-1.583091988675446e-05,-3.3560720466412506e-05
0.0010971416509326197,-1.8387777672918075e-05,-4.2136335415671825e-05
0.0013285408708697854,-2.079881940909668e-05,-5.182451445210133e-05
0.001576586331239864,-2.2860460044686077e-05,-6.246856034931645e-05
0.0018350013579915016,-2.4314805757211815e-05,-7.38383677012021e-05
0.002093601259423207,-2.4971300008678655e-05,-8.554007258547636e-05
0.002344519172694232,-2.4499464728500966e-05,-9.720598887295324e-05
0.002570337098971368,-2.292064766340229e-05,-0.00010812817425920133
0.002770152263314075,-1.9650029847996958e-05,-0.00011805926625155496
0.002907780339623956,-1.553641641407226e-05,-0.0001256542316731361
0.0030195028767910346,-8.741468189448031e-06,-0.0001317162619944679
0.00299791090856643,-3.1553112914963656e-06,-0.00013279220779564295
0.003028211773853256,8.53537471706933e-06,-0.00013404317340921427
0.0027210939277350745,1.1021827760720047e-05,-0.00012396285632524084
0.00282602624203329,3.33526210323925e-05,-0.0001239289759937259
0.0018822315369956255,1.7643337135188097e-05,-9.214128500139752e-05
0.0027027006172006354,7.338103874104655e-05,-0.00010616159494056146
0.0,0.0,0.0
0.0,0.0,0.0
-9.50835178260899e-05,7.017169583695618e-06,4.068510771115908e-06
-0.00016943049112201847,6.6667847560845005e-06,7.371821698964143e-06
-0.0002374474233453864,5.828758583568302e-06,1.0304830247810509e-05
-0.00029641052979594213,4.692261389982907e-06,1.2793180895022854e-05
-0.00034380932636613154,3.3397140895713696e-06,1.4728794825981218e-05
-0.0003777034259939173,1.863201694194842e-06,1.6031872140637866e-05
-0.0003968107870564417,3.6014635304524825e-07,1.666049683914717e-05
-0.0004005356550559059,-1.0767934274528018e-06,1.6611597011125812e-05
-0.00038892932369076336,-2.3702811518932537e-06,1.5917377656720427e-05
-0.0003625804266694414,-3.4679218999284716e-06,1.4637731958533913e-05
-0.00032243762913326866,-4.349926402977029e-06,1.284915783458315e-05
-0.0002695720151089449,-5.033865657211763e-06,1.0631002383543131e-05
-0.00020489353073372812,-5.57563233879589e-06,8.050217651068476e-06
-0.0001288503497536994,-6.06609545166404e-06,5.146241286868162e-06
-4.115117972527976e-05,-6.623397346046802e-06,1.917799550545603e-06
5.944482749708383e-05,-7.381263521757691e-06,-1.6865153372540306e-06
0.00017523542527792576,-8.473658990221609e-06,-5.772374258222512e-06
0.0003095299212361861,-1.0017064562027112e-05,-1.049667068478143e-05
0.00046642146566439307,-1.2091826634888724e-05,-1.6056630882081077e-05
0.0006503145198628445,-1.4726616333777584e-05,-2.2669696189032634e-05
0.0008652963921353496,-1.788618998312518e-05,-3.054801112456522e-05
0.0011142992545018172,-2.1468615782457657e-05,-3.986589793841802e-05
0.0013984667508612641,-2.530106033022694e-05,-5.073370421899856e-05
0.0017162495027716405,-2.9155003146286167e-05,-6.316177786945021e-05
0.0020635614953941725,-3.2733706347378116e-05,-7.705711841052468e-05
0.0024324173874729145,-3.572994269067596e-05,-9.217123378408903e-05
0.002813506943660523,-3.774889333341741e-05,-0.00010817059509420307
0.003191317573896727,-3.852735731342955e-05,-0.00012448005825564738
0.0035553610824225297,-3.755097227597504e-05,-0.00014061748573715145
0.0038788071863994087,-3.492819877629596e-05,-0.00015555725901850913
0.004164333272160348,-2.9687368055953535e-05,-0.00016908737707007411
0.004353617591728295,-2.3330878871993887e-05,-0.00017918728407313936
0.004512375154229445,-1.2729269106507367e-05,-0.00018736900565312733
0.004463354213903099,-4.4216062002291425e-06,-0.00018827051262109166
0.004516319468431122,1.3777260134113066e-05,-0.00019017773393730316
0.004036367338685094,1.6837259218225167e-05,-0.00017535229664990832
0.00423303335788012,5.174421831085339e-05,-0.00017640546333844327
0.0027837712675459108,2.6375694781242562e-05,-0.0001307689133877222
0.004097133453903271,0.00011269592784489008,-0.0001521501358998428
0.0,0.0,0.0
0.0,0.0,0.0
-0.0001409684882357169,1.0832025922287131e-05,5.983433040598451e-06
-0.00024978878271641927,1.0315896869959767e-05,1.080059319009149e-05
-0.00034956147118273543,9.050725247435371e-06,1.5076460051475894e-05
-0.0004364982064302992,7.332972269567886e-06,1.872039020113269e-05
-0.0005070121915046287,5.283725593316583e-06,2.1580382179798134e-05
-0.0005582611947135791,3.036978730491454e-06,2.354043765095166e-05
-0.0005882613438961023,7.345616005717424e-07,2.4535227237837252e-05
-0.0005959220603595671,-1.4882185688511703e-06,2.4551568602786267e-05
-0.0005809946429280819,-3.517731696642268e-06,2.362373955585215e-05
-0.000543930907290854,-5.2759043523805764e-06,2.1823489018135475e-05
-0.00048565741308023215,-6.731400270549779e-06,1.9245485084616433e-05
-0.0004072759071205538,-7.906769367705214e-06,1.598927597854142e-05
-0.0003097069968988846,-8.880224932989401e-06,1.2139260581117204e-05
-0.00019331326027724282,-9.781165320185181e-06,7.744778407308553e-06
-5.7554193160030334e-05,-1.0779233606665477e-05,2.80270435905089e-06
9.926648582247255e-05,-1.2067462816368197e-05,-2.754930144997188e-06
0.0002801233455192343,-1.3839798877158582e-05,-9.066434839629639e-06
0.0004891992198115286,-1.6264741996722533e-05,-1.6336411118908682e-05
0.0007315971940384119,-1.945669801344139e-05,-2.4821428784119683e-05
0.001012717706660527,-2.3451832771883726e-05,-3.480241580758577e-05
0.001337443534266363,-2.8188317486209284e-05,-4.655000764498828e-05
0.0017089666294681516,-3.3503404280219905e-05,-6.027807094542019e-05
0.0021279904416033977,-3.912696902913147e-05,-7.610948067940448e-05
0.0025913590713131742,-4.471142240822547e-05,-9.40227319649723e-05
0.0030925932570495043,-4.980857960348791e-05,-0.0001138577796621296
0.003619539278539588,-5.397432508546979e-05,-0.00013523140767917837
0.004159105307526445,-5.6624108617573925e-05,-0.00015767048001832462
0.004688502147469844,-5.741875754556511e-05,-0.0001803397862689174
0.0051949531257658105,-5.55773094493336e-05,-0.0002026230370672633
0.005638253876078789,-5.139123487949699e-05,-0.0002230283182868743
0.006029276095511231,-4.328076466836326e-05,-0.0002414674577955484
0.006276245410900668,-3.3818713767157114e-05,-0.0002548869052526766
0.006493542645918025,-1.7825270026253266e-05,-0.0002659879899076852
0.006396790238097454,-5.96458591229672e-06,-0.00026645194497581305
0.006487752991272718,2.1451097204235802e-05,-0.00026944436288200003
0.005762997615079879,2.4763070947945713e-05,-0.00024773830597645235
0.006111930972129802,7.756670858811129e-05,-0.0002508380159035757
0.003962366224557456,3.7972989292876977e-05,-0.00018542728077403006
0.0059929933279991975,0.0001672013296807794,-0.00021774304272889226
0.0,0.0,0.0
0.0,0.0,0.0
-0.0002038900854717719,1.6343886357999996e-05,8.68011908796868e-06
-0.00035901843001155155,1.560151029984367e-05,1.560639113442632e-05
-0.0005015322124975286,1.3733522351576612e-05,2.1748327196815353e-05
-0.0006263246573203317,1.1194909197220791e-05,2.7001766349290024e-05
-0.0007284103575567019,8.159664291242474e-06,3.115638188099437e-05
-0.0008037381508084817,4.8180390000660045e-06,3.40465112379987e-05
-0.0008493301516373194,1.3712749467547121e-06,3.5573396139123017e-05
-0.0008633209462549738,-1.9882835923124864e-06,3.570729601708134e-05
-0.0008448904283664486,-5.098363322345841e-06,3.4481227396992e-05
-0.0007940872116519601,-7.84617875863536e-06,3.197782669327478e-05
-0.000711553267676134,-1.0184141430371708e-05,2.831043120882176e-05
-0.0005981664661603038,-1.2140091678811875e-05,2.3599832082592138e-05
-0.0004546204317881474,-1.3820131004097191e-05,1.7948578431886893e-05
-0.0002809843206764059,-1.540265247251446e-05,1.1415535553990913e-05
-7.630703703579979e-05,-1.712310658042597e-05,3.993761237007734e-06
0.00016165396313749228,-1.9250403493585895e-05,-4.40493852442884e-06
0.0004365467762192794,-2.2055141065765895e-05,-1.3956761332678251e-05
0.0007533099410927624,-2.577206022642792e-05,-2.492034603958335e-05
0.0011178306110134555,-3.055783404544033e-05,-3.7618638813498144e-05
0.0015361685718457197,-3.645519944445659e-05,-5.240224109229276e-05
0.0020135843242314847,-4.336185161211849e-05,-6.96045626073374e-05
0.0025529629615440993,-5.102809846529314e-05,-8.947704511718738e-05
0.003153916103119912,-5.9045735264453944e-05,-0.00011214699125910675
0.003810714504423707,-6.690332150484481e-05,-0.0001375381872096543
0.004513582092393734,-7.394240811128856e-05,-0.00016539634344194966
0.00524462492776974,-7.9542676609712e-05,-0.00019514940428937562
0.005986284808144898,-8.285731364765603e-05,-0.00022614878811813818
0.0067058799664718146,-8.347996337986475e-05,-0.00025720037663832303
0.007389491151365654,-8.023956030232938e-05,-0.0002875537773092269
0.007977760582625799,-7.377267738268554e-05,-0.00031505242647868973
0.008497539855526615,-6.154601568792086e-05,-0.00033989903579277327
0.008806486295439427,-4.7851460387376036e-05,-0.00035750293222500405
0.009097339681982994,-2.4294376216313445e-05,-0.00037248467049190887
0.008922929772561343,-7.878301990939212e-06,-0.0003720885805881977
0.009076678279170825,3.2486510652295176e-05,-0.00037683529410748224
0.008008484360722191,3.538853852049773e-05,-0.000345559075642823
0.008600843633268589,0.0001134319503295293,-0.00035222091640360045
0.005488894007483319,5.3178007909478355e-05,-0.0002597360991044501
0.008548978249102975,0.00024201620280499747,-0.00030755331202233545
0.0,0.0,0.0
0.0,0.0,0.0
-0.00028875923722332587,2.4175222545855243e-05,1.2379904953412751e-05
-0.0005049463168777374,2.3127905444648346e-05,2.2165213896167517e-05
-0.0007038858779418837,2.0420531114667848e-05,3.082769357398765e-05
-0.0008788757436020872,1.673875179181546e-05,3.825875556509541e-05
-0.0010231440929326374,1.232828810221976e-05,4.417330841399176e-05
-0.0011310514031027368,7.453979450537827e-06,4.833962385856453e-05
-0.0011982508029093116,2.3953453368175773e-06,5.061278743877968e-05
-0.0012217248366369153,-2.5803872812017804e-06,5.093757875148951e-05
-0.0011996963533821223,-7.247200674711234e-06,4.9340027703921424e-05
-0.001131412573850721,-1.1446699966027668e-05,4.59102243207331e-05
-0.0010168219792489794,-1.5109394161414042e-05,4.077805583239556e-05
-0.0008561716623981825,-1.8268621387236793e-05,3.408389763155101e-05
-0.000649546901605019,-2.1064520786259637e-05,2.5946597952326724e-05
-0.00039639937670304557,-2.3735982041815318e-05,1.6432133427798884e-05
-9.513728259394837e-05,-2.659970752884908e-05,5.526705146134701e-06
0.00025711739158914095,-3.0017985659847213e-05,-6.881317419593018e-06
0.0006645906933818583,-3.435520722240145e-05,-2.1008842470365127e-05
0.0011326586010847644,-3.99266210310936e-05,-3.71701159671618e-05
0.001667468152238623,-4.693859559213112e-05,-5.5754790382879176e-05
0.0022750232582911378,-5.5437760434441285e-05,-7.718096533856264e-05
0.002960152160199356,-6.526312724882464e-05,-0.00010184061795156084
0.0037244667732365903,-7.604584120304218e-05,-0.0001300116249959532
0.004565535186134522,-8.718812270657197e-05,-0.00016181045684189097
0.005473755421016541,-9.796079019282322e-05,-0.00019707387206601692
0.006435059689657227,-0.00010741981695874749,-0.00023542241458509227
0.007423867307135107,-0.00011472679464288226,-0.00027602815212834567
0.008417788163742843,-0.00011867511059497957,-0.00031803695163370776
0.009370815026902218,-0.00011882377867699101,-0.0003597710815545517
0.0102704692405018,-0.00011342939429567281,-0.00040038050070378
0.0110299252250142,-0.0001037365227264491,-0.000436775921762219
0.01170457016927288,-8.573130252164637e-05,-0.0004697354280449373
0.012076191531110711,-6.64043583624767e-05,-0.0004924213056063398
0.012460263404493266,-3.241097861643784e-05,-0.0005124527944763348
0.012166092052100341,-1.0315762293826727e-05,-0.0005105703628281223
0.012421317805239257,4.7972647957141285e-05,-0.0005180857030601992
0.010879362437796,4.9281788788968534e-05,-0.0004738924792696143
0.01184697246320219,0.00016235635304162827,-0.00048638929998298035
0.007433058104136997,7.271223765447118e-05,-0.00035792917311528496
0.011940419196486996,0.0003429756449671417,-0.0004270001873645823
0.0,0.0,0.0
0.0,0.0,0.0
-0.00040098808864211184,3.5093918660944215e-05,1.7354480031317037e-05
-0.0006958885593768996,3.364192321419288e-05,3.0933941194087196e-05
-0.0009676183544924544,2.97843492290971e-05,4.29249202920718e-05
-0.0012076049315775036,2.45365397285127e-05,5.323274495579502e-05
-0.0014068412736260598,1.824019840268909e-05,6.147929221715447e-05
-0.0015576438029127674,1.1257492280079467e-05,6.734741829738886e-05
-0.001653826226290819,3.969228027475105e-06,7.063080312654172e-05
-0.0016907236027256167,-3.2610429824521755e-06,7.123765448377686e-05
-0.0016650737382541943,-1.0125716788499553e-05,6.917914354232281e-05
-0.0015747589663381854,-1.6408149242225477e-05,6.454695313580137e-05
-0.001418442030991833,-2.2010466481265746e-05,5.748254085750563e-05
-0.0011951427239904745,-2.6971547883116184e-05,4.814101466161506e-05
-0.0009037801843172081,-3.14718937295258e-05,3.665250180570761e-05
-0.0005427266315729564,-3.582254423622436e-05,2.3085105489606572e-05
-0.00010944551366732574,-4.0436557052793315e-05,7.413815827052487e-06
0.00039964673566560225,-4.5785951628572014e-05,-1.0498885718297655e-05
0.000989121012143396,-5.234394126587333e-05,-3.0909970247785325e-05
0.0016641894652920505,-6.051801122071782e-05,-5.4184058774993155e-05
0.0024303186984530084,-7.056868834431619e-05,-8.076827031479566e-05
0.0032922102846456316,-8.254103438528846e-05,-0.00011113403493459729
0.0042529084149152355,-9.619252192859732e-05,-0.00014571592011963457
0.005311241357018402,-0.00011099795233499925,-0.00018479484899014043
0.006461420847131536,-0.00012610800284175262,-0.00022845330231868331
0.007688282617301111,-0.00014051530625430506,-0.00027639831798174246
0.008972497540262836,-0.00015289672263593768,-0.000328094388025751
0.010278446122417689,-0.00016215725500296014,-0.00038237718397323144
0.0115792213482155,-0.00016660029168051127,-0.00043817248399058504
0.012810992240467868,-0.0001658235631038569,-0.0004931619254693307
0.01396759982096024,-0.0001572444562188585,-0.0005464862327098622
0.01492286693117136,-0.00014312764714392214,-0.0005937593931102508
0.015780204352074112,-0.00011719145014656965,-0.0006367869844985268
0.016208862691509215,-9.056883122681896e-05,-0.0006654926113567054
0.016711610139220366,-4.244354541278081e-05,-0.0006920418607505162
0.016240044907680842,-1.3512221598520111e-05,-0.0006878339617407578
0.01665467736169581,6.915019749385342e-05,-0.0006996296691548096
0.014471467901925635,6.692175698478287e-05,-0.0006384493895541775
0.015998746618334433,0.00022771262745981287,-0.0006600198965168704
0.009856278397636456,9.717886116845413e-05,-0.0004849062692507207
0.016353636683312568,0.00047648975848482234,-0.0005822316826368447
0.0,0.0,0.0
0.0,0.0,0.0
-0.0005467466476450901,5.004502386261604e-05,2.3912489323103803e-05
-0.000941027489389214,4.8061879221677844e-05,4.2423071922798456e-05
-0.0013046275473030458,4.2649223565795126e-05,5.871320602468872e-05
-0.0016268395964290697,3.528626846291964e-05,7.27344519658805e-05
-0.001895910478119813,2.64423599167223e-05,8.399641218744258e-05
-0.002101585911165835,1.6605442109849037e-05,9.207411428071083e-05
-0.002235283219039009,6.285578104168913e-06,9.66817266452023e-05
-0.0022900843591036747,-4.032046152947035e-06,9.767725069720615e-05
-0.002260575026978398,-1.3937900162438902e-05,9.504663773316806e-05
-0.002142540140271838,-2.3143300005030575e-05,8.887458179837746e-05
-0.0019325699022669377,-3.1515329510195434e-05,7.930600659704496e-05
-0.0016276541700295042,-3.90986572237295e-05,6.650246527956708e-05
-0.0012247950656646004,-4.6120427099562706e-05,5.059698846067153e-05
-0.0007206759253289458,-5.297466598751178e-05,3.165222235793558e-05
-0.00011143990791714338,-6.0183697996852845e-05,9.626500091728752e-06
0.0006072343104681544,-6.834177274282538e-05,-1.5644614940843138e-05
0.0014398552650362467,-7.804038349690793e-05,-4.4452812437829164e-05
0.002390521091038821,-8.978492704368439e-05,-7.719889399862865e-05
0.0034625676601263773,-0.00010388858110424042,-0.00011436570611583846
0.0046574842557261156,-0.00012038542392912205,-0.00015644793587557733
0.005974512814145759,-0.00013892396062988762,-0.00020389152707382772
0.0074075142122438575,-0.000158783249905984,-0.0002569412216151436
0.008945652250903536,-0.00017879162721272582,-0.00031561393902579355
0.010566086872345625,-0.0001976019216901474,-0.00037943254817010254
0.012243496565679031,-0.00021339874049034822,-0.00044767976217599905
0.013929442078050107,-0.00022480495821125524,-0.0005187592187205405
0.015594027756182476,-0.00022945993103856718,-0.0005913906029120163
0.01714967480909195,-0.0002271376069509075,-0.0006624157008651993
0.018604878776157862,-0.0002140269510415791,-0.0007311407427712861
0.019777200825512983,-0.0001940373351443686,-0.0007913889391977475
0.02084725232349828,-0.00015746460361872728,-0.0008466779666967539
0.02131950447414111,-0.00012165922384612701,-0.0008823296764629696
0.02197544682602252,-5.475254108253533e-05,-0.0009172159913307074
0.02125099178616277,-1.7905390437426244e-05,-0.0009095882179004046
0.021909429344682516,9.733232862958326e-05,-0.0009278206976432979
0.01887493703099963,8.86181539724712e-05,-0.0008448314981266422
0.0212112466240279,0.00031320832236308917,-0.000879917424472617
0.012816401649456174,0.00012707554177924062,-0.0006456973142762088
0.021988549846244817,0.0006496040181374019,-0.0007795381410075786
0.0,0.0,0.0
0.0,0.0,0.0
-0.0007322228496666754,7.013606142994426e-05,3.2432783286892626e-05
-0.0012489647595928712,6.746524069995115e-05,5.72549413193807e-05
-0.001725668154940468,5.9982615063698434e-05,7.900313661851532e-05
-0.002149290124575132,4.9808152559366366e-05,9.772522451150252e-05
-0.0025047712399793483,3.757879661497079e-05,0.00011279896107942466
-0.0027786813314590354,2.3942717965613315e-05,0.000123667138052428
-0.002959374236790194,9.572358182974243e-06,0.00012994554544455044
-0.0030369307472169938,-4.896130402306133e-06,0.00013142853797608529
-0.0030029461690227258,-1.892838214648645e-05,0.0001280668049027154
-0.0028501820289947937,-3.2148775451359136e-05,0.00011992915895974569
-0.0025721617984710067,-4.43825772125652e-05,0.00010715450128394606
-0.0021628362017805085,-5.568056005767424e-05,8.99001407502807e-05
-0.0016163579314676468,-6.632213132561171e-05,6.829074995852769e-05
-0.000926988898454923,-7.679302879145523e-05,4.2373509905463457e-05
-8.91386185149515e-05,-8.77333929391087e-05,1.2083621555712585e-05
0.0009022063712409245,-9.986526601067081e-05,-2.2769692633971945e-05
0.0020508724776398465,-0.00011389822628242316,-6.250245253203061e-05
0.003358495238818518,-0.00013043091582509586,-0.00010752750040625466
0.004824259543497071,-0.00014981774715145814,-0.00015832779863951248
0.006443766654062305,-0.0001720668796058494,-0.00021537292952179596
0.00820967723808616,-0.00019668584112031936,-0.00027907224861986363
0.010107896767711021,-0.0002227204090433133,-0.0003495773305983883
0.012120467122872998,-0.0002485993881055515,-0.0004268019687783572
0.014214257774207187,-0.00027258120347827523,-0.0005100194552102325
0.016357709600997375,-0.00029222348500476143,-0.0005983202907162993
0.018486224091998255,-0.00030586820127621314,-0.0006895656239052885
0.02057030077019458,-0.00031025689694349817,-0.000782331953478774
0.022490658024949168,-0.000305573822198132,-0.0008723683909456373
0.024283707804485657,-0.000286217832986754,-0.0009594435483279012
0.0256868562691281,-0.00025866495158118297,-0.0010349213325828235
0.027000310349438082,-0.00020813232273637919,-0.0011050237908115778
0.02749083390052248,-0.00016110680647373355,-0.001148623211987943
0.028345134265649333,-6.970248596243286e-05,-0.0011942203046289616
0.027269996142976597,-2.412014668951846e-05,-0.0011819143952248796
0.028289861987641107,0.0001338640353263682,-0.0012096294539794478
0.024146353881614013,0.00011437499984562089,-0.0010993020141038898
0.027619461368759125,0.0004226181891756178,-0.0011537256874576865
0.01634673258812592,0.00016252933479377461,-0.0008461318577944811
0.029036617430521817,0.0008693328397229655,-0.0010257426252635047
0.0,0.0,0.0
0.0,0.0,0.0
-0.0009649826085443955,9.671563554989145e-05,4.3302574859081425e-05
-0.001630119618671301,9.31557899322327e-05,7.604755824296893e-05
-0.00224350773461933,8.2940017368542e-05,0.00010458168760765039
-0.0027895908208619958,6.906281129000275e-05,0.00012912551673742133
-0.0032493743274973905,5.2382422499149376e-05,0.00014890739260250716
-0.0036055955956364833,3.375186594772094e-05,0.00016321119752617396
-0.0038428331946244766,1.4046966771709233e-05,0.00017153340144448486
-0.0039473640305295,-5.910783668797835e-06,0.00017358995407727414
-0.003906877330742761,-2.543727259937633e-05,0.0001692854755038761
-0.0037100799642965504,-4.4055594691652704e-05,0.00015866342263612778
-0.003346302975260643,-6.154433731701074e-05,0.00014184641006182623
-0.0028053041203743257,-7.796239784752716e-05,0.00011897572833426973
-0.0020773226923520107,-9.364704835968318e-05,9.015526923413582e-05
-0.0011533876321706928,-0.00010918178748199588,5.5406195004877634e-05
-2.576062592830754e-05,-0.00012532689790922344,1.4634760037011165e-05
0.0013111146006930586,-0.0001429278500358113,-3.237259719513335e-05
0.002859552996216497,-0.00016279820176319463,-8.594005065258385e-05
0.004617000791762274,-0.00018561029228832013,-0.0001464576811146589
0.006575945550889843,-0.00021173403946999112,-0.00021435864363070878
0.008722668196493633,-0.00024112991497586106,-0.0002900190735963599
0.011039742294389431,-0.0002731284170167707,-0.0003737461961829036
0.013501290497960889,-0.0003065130421876707,-0.00046552088077407035
0.01607990465778487,-0.00033923384439316014,-0.000565112030473123
0.018729033882668368,-0.0003691203576928247,-0.0006714643053342801
0.021411552272804186,-0.0003929450487656337,-0.0007834896521088824
0.02404267947960099,-0.00040881677723257794,-0.0008983751147272475
0.02659947514312687,-0.00041226288109268556,-0.0010146861100881644
0.028920174725963775,-0.0004042493693751527,-0.0011267512729996071
0.031089183967135874,-0.0003765800986782462,-0.0012352639934627677
0.0327302794841313,-0.0003396176689411726,-0.0013282306379394568
0.03432299636151293,-0.00027116669782342235,-0.0014159705213137434
0.03479630505538236,-0.000210855595939649,-0.0014684575502432104
0.035912607463454684,-8.804445834713954e-05,-0.001527685573461529
0.034367044482652986,-3.3320129435814585e-05,-0.0015091988775268789
0.0359094926950141,0.00017987210379518046,-0.0015504503854514432
0.030347719354540503,0.00014379388654919283,-0.0014066214729419025
0.03537433457104597,0.0005598475837549482,-0.001487808995302155
0.02048777568030969,0.00020357540124729806,-0.001091136414042469
0.03770437563399372,0.0011432696179012288,-0.0013265843417766177
0.0,0.0,0.0
0.0,0.0,0.0
-0.0012509903352942808,0.00013124465782951125,5.706318952170275e-05
-0.002091218415629022,0.00012654947688050448,9.967802196364759e-05
-0.002865396191711303,0.00011278031191450695,0.0001365621212276684
-0.0035554436655999104,9.410230468718976e-05,0.00016821293836035258
-0.0041377738817415044,7.166131013293362e-05,0.00019369415272371172
-0.004590545473460993,4.656844158964904e-05,0.00021210584858574657
-0.0048937107368386,1.99510951861754e-05,0.00022281025336820032
-0.005028769191490374,-7.144050009627383e-06,0.00022543924098270728
-0.004978410640642832,-3.385490129267381e-05,0.00021985042499705684
-0.004726096175799862,-5.9587824834010315e-05,0.0002060611158026575
-0.004255711406910327,-8.40702531510216e-05,0.00018417365125716654
-0.0035515814859202063,-0.00010737168214944652,0.00015430515288471303
-0.0025989337566199554,-0.00012989164790925113,0.0001165278243747919
-0.0013847922626741515,-0.00015231352586660856,7.082692269228517e-05
0.00010102876004443819,-0.0001755121803747791,1.707459536307887e-05
0.001864284561326471,-0.00020044008192072677,-4.4959951320207134e-05
0.0039047135473750864,-0.00022798332780074137,-0.00011558952700825227
0.00621349703272168,-0.0002588495407948884,-0.00019513920209104403
0.008773451490986807,-0.00029337918795476294,-0.00028393276405473504
0.01155741304946789,-0.00033145449870208214,-0.00038216834849661384
0.014533727386545367,-0.0003721877359479291,-0.0004899737495775965
0.017660003314122465,-0.0004140863547265318,-0.0006070642092556501
0.02089689343144096,-0.0004545429527158545,-0.0007330277068225901
0.024180570764700596,-0.0004909589935668685,-0.0008663911396596319
0.027470261760377604,-0.0005191344987700688,-0.0010059455444898571
0.030655805222645553,-0.0005370648816947069,-0.0011480506331714385
0.033730674059534525,-0.0005386333201419679,-0.0012914966002229749
0.03647569261177262,-0.0005261519322009486,-0.0014287683476637537
0.039052357185139164,-0.0004876975037886681,-0.001562168242780917
0.04092454472252529,-0.00043937156801104145,-0.0016751487329466834
0.0428333075419532,-0.0003483595873084938,-0.0017840119599791004
0.04323565486104889,-0.00027282154110394173,-0.001846633298257027
0.04469481148342815,-0.00011044515699212471,-0.0019234466277441228
0.042529493070225514,-4.689451655298467e-05,-0.001897399064615075
0.044803883964169455,0.00023632056031035843,-0.0019576524918888142
0.03745940607740286,0.0001758584064623218,-0.0017737438904907922
0.044557038644423924,0.000728185341925003,-0.0018907421769658612
0.02521909533632699,0.0002493580366646107,-0.0013877517967504406
0.048144624561203296,0.0014774532243211167,-0.0016891084457260337
0.0,0.0,0.0
0.0,0.0,0.0
-0.0016006344801928415,0.00017560662806732758,7.415169938591426e-05
-0.002646178920724584,0.00016943995170577144,0.0001288076730873677
-0.0036076944916242784,0.00015104393761113013,0.0001757402448544308
-0.004464495497778944,0.00012614400253467778,0.00021587382124954206
-0.005187627126154739,9.626999735661401e-05,0.0002481003015158026
-0.005749934126284068,6.2867467405289e-05,0.00027131011396548384
-0.00612600758109532,2.7380325207671307e-05,0.000284714617928294
-0.006291769359717011,-8.87059982255764e-06,0.0002878556804301279
-0.006224001997065939,-4.481537571692182e-05,0.00028054483277523747
-0.005899900789801315,-7.973234048499853e-05,0.0002627764609749195
-0.0052967968504511334,-0.0001133002687868764,0.00023463420998826428
-0.004392461930838242,-0.0001456081929014258,0.0001962092356180792
-0.0031661199435525315,-0.0001771252501762365,0.00014753751964170978
-0.0016001520065390402,-0.0002086349958535179,8.856486296308532e-05
0.0003182117887268728,-0.00024111376346584918,1.912979787044553e-05
0.0025943865774676854,-0.0002755919803636391,-6.100464978501598e-05
0.00522432987878692,-0.00031297748064867015,-0.00015211643725332108
0.00819072044797323,-0.00035395358043154257,-0.0002544173086679151
0.011463624116359032,-0.00039876326229138566,-0.0003680567571249612
0.01499793029354757,-0.0004471710038075358,-0.0004929569997753584
0.018743382447177194,-0.0004980244109320281,-0.0006289819596467993
0.02263563863839094,-0.000549567164118262,-0.0007754668901716486
0.026621193294673547,-0.0005985609775104512,-0.0009317921195281207
0.03061435949204187,-0.0006420384323076022,-0.001095957568204777
0.03457462993690442,-0.0006746048276932751,-0.0012667428759456387
0.038359718947061236,-0.000694368131525346,-0.0014394832624312346
0.041994508026512285,-0.0006929809608306615,-0.0016135550885902615
0.04518186745794718,-0.0006749212910311966,-0.0017790361107699335
0.04820126277154866,-0.0006229609175243547,-0.0019407977934179778
0.05029357518661008,-0.0005614614132108781,-0.0020761659834896483
0.05257130003499558,-0.0004426518158933791,-0.002209920319167331
0.05284249844802673,-0.00035028958333484917,-0.0022837734420608716
0.0547606196223013,-0.0001388126039383948,-0.002382823658489001
0.051805503207708214,-6.754204510198315e-05,-0.0023476314498193755
0.05508423112390097,0.0003033293393568324,-0.0024336379959816077
0.04553731893930711,0.0002088923192706272,-0.002202796011862998
0.05532718210966727,0.0009310206617015024,-0.0023664638310011005
0.030584798932234626,0.00029942377137482594,-0.0017394184262502302
0.060566673948284286,0.0018795717709676517,-0.002116606175577552
0.0,0.0,0.0
0.0,0.0,0.0
-0.002017277182217402,0.00023153748449576854,9.546075953795536e-05
-0.0032952706104583994,0.00022349740389164918,0.00016489688275708598
-0.004467712919240604,0.00019919338066594106,0.0002239511136308074
-0.005511641984805684,0.0001663816623195818,0.00027415959084928215
-0.006391988654540814,0.0001270887515561705,0.0003142409846332543
-0.00707539256481163,8.318189897325623e-05,0.0003428630436659215
-0.007530066085192788,3.6496605156547e-05,0.00035909558246137815
-0.007725228907917051,-1.1313810435313316e-05,0.00036241869991263174
-0.0076305756937152655,-5.893408035639794e-05,0.000352634333603962
-0.007215873443925596,-0.00010549839881439908,0.00032974881066013157
-0.006450811948742966,-0.00015063742514117768,0.0002938534210689788
-0.005305666677220515,-0.00019446831941364738,0.0002450288436470178
-0.003752957708070126,-0.00023753597366500012,0.00018328092321701523
-0.0017701696744432018,-0.0002807212134909828,0.00010851854838280415
0.0006577758985090938,-0.00032508167854131793,2.0549358799307494e-05
0.0035350127486290465,-0.0003716863284277602,-8.085875197168956e-05
0.00685230046401979,-0.00042139602958856396,-0.0001959302050509424
0.010581469668703066,-0.0004747899388132349,-0.0003247200594256856
0.014676905425004891,-0.0005319189950418706,-0.0004671489379562229
0.019070909464074203,-0.0005923798554269272,-0.0006227670836191325
0.023690349374991364,-0.0006546978213319083,-0.0007911033192207949
0.028442746174870102,-0.000716896749494441,-0.0009709928613976678
0.03325863672483726,-0.0007750339148422099,-0.0011616157688580625
0.03802454169054542,-0.000825910072688022,-0.0013603252278352124
0.04270635981976706,-0.0008626605828996934,-0.0015660876445735227
0.04712005510613408,-0.0008838774854790425,-0.001772973013148461
0.05134304610166495,-0.0008781866734419819,-0.0019814870882063373
0.0549715847159786,-0.0008533949752252109,-0.002178568948691556
0.058458664913633766,-0.0007848280199283867,-0.002372971912359066
0.06073774560088703,-0.0007084940102746616,-0.0025338561151186894
0.06343711028444639,-0.0005559679771457251,-0.002697667646213311
0.06348858593584937,-0.00044572360750682704,-0.0027848479311256657
0.06600188155252029,-0.00017430738244486339,-0.0029127103848103565
0.06204716123083095,-9.773547327823488e-05,-0.0028676631481095722
0.06665952079384241,0.0003808369805658622,-0.0029882812343962257
0.05443240644228353,0.00024024253480568609,-0.0027038764497152104
0.06764789724601362,0.0011697695400014272,-0.0029266012724835917
0.03646970725518979,0.00035116438318426996,-0.00215644729419409
0.0750175437357044,0.002352078847498439,-0.002617600011641036
0.0,0.0,0.0
0.0,0.0,0.0
-0.0025197929812828005,0.000301838488769125,0.0001213648033625827
-0.004065780061806644,0.0002913165764621745,0.00020843037949765838
-0.005478442626371364,0.0002593303331309314,0.0002816829484467348
-0.006732386035521942,0.00021630755936407828,0.0003435361604616554
-0.007785408905065932,0.00016495897327439092,0.0003925550231934389
-0.008597267310061144,0.00010772060457224763,0.00042717002608448753
-0.009129385125623475,4.693588428630163e-05,0.0004463103718635149
-0.009343990438271426,-1.533180482409752e-05,0.000449414771709478
-0.009203402839123206,-7.748519602599643e-05,0.0004363093465219811
-0.008669638137123733,-0.00013851317185439797,0.00040705206991517215
-0.007704387092430361,-0.00019802014859032202,0.00036178032100935627
-0.006270091934310615,-0.00025618060500182864,0.0003005970314847713
-0.0043323478690753744,-0.0003136354701402177,0.00022350298481508895
-0.0018638967297998211,-0.00037136650527917796,0.000130391282379805
0.0011520556533117256,-0.0004304910392215045,2.1056015588833202e-05
0.004717176740464144,-0.0004920715592660703,-0.00010470873594752459
0.00881569252447919,-0.0005568388506821766,-0.0002470550266796273
0.013406543575843102,-0.0006251724279886844,-0.0004058416701684757
0.01842634002046511,-0.0006968104557476951,-0.0005807216921028572
0.02378073038360656,-0.0007711256065746729,-0.0007707824823856314
0.029370506134444536,-0.0008462504637953431,-0.0009751669854389319
0.035068705894526986,-0.0009200799356257843,-0.0011920768148771523
0.04078953803679127,-0.0009878937262207809,-0.0014205322916885658
0.04638455479483935,-0.0010465107257304372,-0.0016570783330212948
0.05183576816604173,-0.0010872531203764736,-0.0019011495092798453
0.056904284511075875,-0.0011097680486638795,-0.0021452075503247663
0.06174960355109499,-0.0010985775549691977,-0.002391620534863777
0.065822437812674,-0.0010664064491066542,-0.0026232042764985906
0.06982328357101056,-0.00097824897380291,-0.002854311333858152
0.07226702051184197,-0.0008861567384899312,-0.0030433372749171937
0.0754820277118297,-0.0006936450669429626,-0.0032424118591447065
0.07523571386510196,-0.0005653298863445691,-0.003344508962163482
0.07854381310189183,-0.00022163496972489317,-0.00350824702131405
0.07337192756474921,-0.00014315624794794348,-0.003452275087522025
0.07973127747836316,0.0004666098860546628,-0.003617560639103233
0.06429488195445991,0.00026634119461710766,-0.00327318049589076
0.08177165688400177,0.0014468765914217104,-0.003569144369697909
0.04300306285601355,0.00040424326749699535,-0.0026379472292394307
0.0917664465276531,0.0029041464128649703,-0.003190002996541007
0.0,0.0,0.0
0.0,0.0,0.0
-0.003102054658232314,0.0003881958144118047,0.00015364918746241964
-0.004938853163963912,0.0003745106972663185,0.00026240278909924196
-0.006610140902840465,0.0003328588381609106,0.00035272967629516665
-0.008089071313885266,0.0002770586859975685,0.00042821452789788437
-0.009325519287786004,0.00021069926933183432,0.0004872986268427203
-0.010271257481004685,0.00013693480622356755,0.0005282061504996166
-0.010879644808037284,5.8741194825276936e-05,0.0005498089070254808
-0.011104614156406416,-2.1314750381286397e-05,0.0005516251672791613
-0.010899961407745773,-0.0001012966589142417,0.0005336373599009184
-0.010219148727761038,-0.00018002728649613842,0.0004960768335943287
-0.009015503515751469,-0.0002570923208570394,0.0004392250626852566
-0.0072437223902173204,-0.0003327455188642156,0.0003632776610159898
-0.00486294841794227,-0.000407741604651812,0.0002682747271810243
-0.0018421826282441498,-0.00048316809686828777,0.00015412161191268457
0.0018356767199127749,-0.000560181657121304,2.061281238090139e-05
0.0061679099753088,-0.000639797389471429,-0.00013241952781673988
0.011130623433011643,-0.000722529051611338,-0.0003050588421704102
0.01666792150488222,-0.0008084567661000146,-0.0004969556334389161
0.022697508059869184,-0.0008968600454707751,-0.0007075039800656151
0.02909497511322733,-0.000986825456178491,-0.000935273608468417
0.035733255308638884,-0.0010759925305336305,-0.0011790342259189633
0.042444047733154466,-0.001162262484871039,-0.0014362390641394468
0.04912625573504798,-0.0012400359378612305,-0.0017058760165407538
0.05558650502996586,-0.0013065278219958028,-0.001983505536441222
0.0618359447269799,-0.0013507904640006568,-0.002269467718846813
0.06756135388297527,-0.0013743490881655493,-0.002554187245283311
0.0730429139296777,-0.0013561843063249121,-0.0028429165499906494
0.07753242583722719,-0.001316086117142625,-0.0031130940370031833
0.08207356129814536,-0.0012049623924636408,-0.0033868999339191942
0.08461943552314043,-0.0010965937061819088,-0.0036087095453178836
0.08843086852267754,-0.0008571421306109407,-0.0038512230313549976
0.08775649235076198,-0.0007115546575056767,-0.0039724422445695465
0.09206528513759935,-0.00028208577240325004,-0.004182755298417746
0.08539741256286754,-0.00020711907552348029,-0.004117308265835842
0.09396503282179425,0.0005591401785892364,-0.004340588621086534
0.07473203378329293,0.00028233726686072077,-0.003931114278438952
0.09741522421258338,0.001759930619019006,-0.004315655616332641
0.049879764640146325,0.00045281374700603823,-0.003203434994917286
0.11063572853252379,0.0035300403530588243,-0.003849078860129577
0.0,0.0,0.0
0.0,0.0,0.0
-0.0038080120999362433,0.0004954768349767327,0.00019220947532482997
-0.005984182525783941,0.00047743804738359613,0.0003263414038610015
-0.007951050926862149,0.0004230411840599931,0.0004361980768989671
-0.00967955083453449,0.00035057894647644663,0.0005269854454639384
-0.011110209241096645,0.00026491340309272297,0.0005971004658814522
-0.012186599487869017,0.00017022683501314301,0.0006445783950213376
-0.012854790662738123,7.035462870888547e-05,0.0006682720611176111
-0.01306175871987725,-3.1503215010455654e-05,0.0006678481119054052
-0.012754287066756877,-0.00013303333260604767,0.0006435365140422711
-0.011878780367552409,-0.00023292525197564763,0.0005958449974071496
-0.010381611863078755,-0.00033081909943404476,0.0005253022317410214
-0.00821107628593597,-0.00042713073045768177,0.00043229081543818616
-0.005321109669818739,-0.0005227913392729582,0.00031696760748061467
-0.0016784252913114948,-0.0006190282892851921,0.0001793135141141388
0.002732828945402626,-0.000717032116093482,1.9165666192848723e-05
0.007903592113228169,-0.0008177432349728679,-0.00016357302381407409
0.013800798246726868,-0.0009213750749314572,-0.0003689207669601824
0.02035263051200294,-0.0010276177867359203,-0.00059631602568208
0.027458845274752525,-0.0011351287556144762,-0.0008449411161347766
0.03496336480346756,-0.0012426562659044527,-0.0011128152903330053
0.04271263655824859,-0.0013472164202585585,-0.0013984047504836752
0.050490857952458716,-0.0014469222787497687,-0.001698284437825168
0.058186164215489514,-0.0015351608418757274,-0.0020115997723843416
0.06554817662648504,-0.001610103066654575,-0.0023326562200778936
0.07263622030760081,-0.0016579356514139843,-0.002663248120588022
0.07903664726350021,-0.0016832174937250243,-0.0029911186789954173
0.08520184761188047,-0.0016574854923829165,-0.0033256779716530818
0.09011470363431039,-0.0016103899585740316,-0.003637309724211938
0.09528430630494408,-0.001473866351827165,-0.0039587858358645775
0.0979205141953619,-0.0013504779299363936,-0.004216451371343737
0.10250108304204691,-0.0010573814145261185,-0.0045094943120650675
0.10132277721137734,-0.0008968547693152995,-0.004652254277428517
0.10695216872340085,-0.00036652087768520046,-0.00491905714928508
0.09853919826655089,-0.000301100437344042,-0.004844246508498218
0.10989002614255779,0.0006515845169966142,-0.005139121326247328
0.08623561630470025,0.00028196017670212265,-0.004659943164235219
0.11515657101133718,0.0021110755459305937,-0.005150148230547891
0.057513057367865404,0.0004985344744307565,-0.0038406834574538666
0.1321504435231388,0.004246597421995087,-0.004581215621181291
0.0,0.0,0.0
0.0,0.0,0.0
-0.004601418620368943,0.0006242162591803581,0.0002411308092814891
-0.007126467838705068,0.0006006527119237111,0.00040723732670256405
-0.009394502639432428,0.0005304736581882245,0.0005410359152531152
-0.011376734698772295,0.00043751250269234487,0.0006497869657610533
-0.013003706704077064,0.0003282337208916291,0.0007319470492758236
-0.014209215786637324,0.0002080998100333854,0.0007855249807468225
-0.01492996597954331,8.201049025547917e-05,0.0008096336075911655
-0.015103934533074856,-4.6050036884454944e-05,0.0008044304323480222
-0.014669400253006394,-0.00017329942827432138,0.0007707325142204935
-0.013565203619559579,-0.00029826120989121695,0.0007096153642852088
-0.0117313884504072,-0.0004206461528934383,0.0006220769869504947
-0.009111507282652294,-0.0005410798232851824,0.0005088399223704505
-0.0056565286080633844,-0.0006607186389971722,0.00037026833266177393
-0.0013336871519471002,-0.0007809698471006599,0.0002064680265945486
0.00386877011964985,-0.0009030681023387346,1.7328529932500623e-05
0.009932207101563506,-0.0010278838466402892,-0.00019718159369566115
0.016812765411065793,-0.0011552722100161318,-0.000437074707636099
0.024421364726102388,-0.00128447740726282,-0.0007016312594300049
0.03264215177677681,-0.0014133597392585217,-0.0009899650241782067
0.04128663759458755,-0.0015402896295363699,-0.0012995883091959886
0.05017891487803761,-0.0016614623275645422,-0.0016288696205765587
0.059048692597798304,-0.0017754582031519685,-0.00197342789237019
0.06778051137298029,-0.001874408536379203,-0.0023329298372425714
0.07604942905404696,-0.001958176938686245,-0.002700137836020421
0.08398652183080657,-0.0020092539855726854,-0.0030791145440784103
0.09103952678733317,-0.0020367796351906057,-0.0034541407557619613
0.09789689102730212,-0.002002376983262022,-0.0038405045449288835
0.10317936898836516,-0.0019491939617110022,-0.004199481097799935
0.10901324621709599,-0.0017841070629468698,-0.004577905429310906
0.11164011455089547,-0.0016472991100494256,-0.004879248352235329
0.11710102789060184,-0.0012929513126111434,-0.00523609752445366
0.11523010171038679,-0.001121105927155082,-0.005408910948953991
0.1224506058992826,-0.00047411113957978126,-0.005749293257552118
0.1119288001320252,-0.00042735811274995507,-0.005671226135598987
0.1266421815652498,0.0007415892551246654,-0.0060571349618211145
0.09787740225349971,0.0002577735784512522,-0.005506726730637537
0.13416415979234253,0.002490983464053339,-0.006120630637979959
0.06516184194426232,0.000528938454217116,-0.004592423213251244
0.15564477913391134,0.005030048639558422,-0.005421780919700137
0.0,0.0,0.0
0.0,0.0,0.0
-0.005594554888704718,0.0007844869730825911,0.00029850083004313036
-0.00855296702814917,0.0007529297518857337,0.0005012137210360725
-0.01118327579216526,0.0006612604260505368,0.0006616591873100977
-0.013454275709387885,0.0005408204319973226,0.0007899214306217161
